   -0.53     2.87    -0.15     5.00
   -0.52     2.79     0.66    11.00
   -0.53     2.86    -0.05     9.00
   -0.63     3.41     0.93    20.00
   -2.61    14.25    -3.88    11.00
   -4.17    22.80     0.40    12.00
   -2.76    15.11    -3.55    14.00
   -2.03    11.12    -0.59    16.00
   -1.56     8.54    -1.69    21.00
   -1.30     7.09     0.63    13.00
   -1.09     5.98    -0.96    21.00
   -0.95     5.21     0.65    25.00
   -2.69    14.72    -1.84     1.00
   -4.12    22.52     3.63    12.00
   -2.84    15.56    -1.38    14.00
   -2.00    10.93     2.16    16.00
   -1.59     8.70    -0.46    21.00
   -1.27     6.95     1.63    13.00
   -1.10     6.04    -0.11    18.00
   -0.93     5.08     1.38    21.00
   -0.40     2.22     0.04     2.00
   -0.43     2.36    -0.55     7.00
   -0.46     2.53    -0.13    42.00
   -0.51     2.82    -0.56     5.00
   -0.52     2.87     0.26     9.00
   -0.51     2.83    -0.45     9.00
   -0.63     3.49     0.44    18.00
   -0.40     2.20     0.35     2.00
   -0.43     2.39    -0.21     8.00
   -0.45     2.49     0.49    45.00
   -0.52     2.88    -0.15     5.00
   -0.51     2.79     0.66    10.00
   -0.52     2.87    -0.05     9.00
   -0.61     3.39     0.92    18.00
   -3.96    22.09    -6.01     4.00
   -4.09    22.81     0.40    12.00
   -2.73    15.25    -3.58    14.00
   -1.99    11.13    -0.59    16.00
   -1.53     8.55    -1.69    21.00
   -1.27     7.11     0.63    13.00
   -1.07     5.97    -0.96    19.00
   -0.94     5.22     0.65    20.00
   -4.06    22.67    -2.83     4.00
   -4.04    22.55     3.63    12.00
   -2.79    15.59    -1.39    14.00
   -1.96    10.95     2.16    15.00
   -1.56     8.68    -0.46    21.00
   -1.25     6.96     1.63    12.00
   -1.08     6.04    -0.11    19.00
   -0.91     5.07     1.38    21.00
   -0.40     2.25     0.04     2.00
   -0.42     2.34    -0.55     7.00
   -0.45     2.53    -0.13    42.00
   -0.50     2.84    -0.56     5.00
   -0.51     2.85     0.25     9.00
   -0.50     2.84    -0.46     9.00
   -0.62     3.49     0.44    18.00
   -0.39     2.21     0.36     3.00
   -0.42     2.39    -0.21     8.00
   -0.44     2.45     0.48    21.00
   -0.51     2.89    -0.15     5.00
   -0.50     2.79     0.66     9.00
   -0.51     2.86    -0.05     9.00
   -0.61     3.41     0.93    18.00
   -3.88    22.07    -6.01     4.00
   -4.01    22.85     0.40    12.00
   -2.68    15.26    -3.58    14.00
   -1.96    11.15    -0.59    15.00
   -1.50     8.55    -1.69    21.00
   -1.25     7.11     0.63    13.00
   -1.05     5.98    -0.96    18.00
   -0.91     5.21     0.65    26.00
   -3.98    22.69    -2.83     4.00
   -3.97    22.58     3.63    12.00
   -2.74    15.60    -1.39    14.00
   -1.92    10.95     2.16    15.00
   -1.53     8.71    -0.46    21.00
   -1.22     6.95     1.63    13.00
   -1.06     6.06    -0.11    18.00
   -0.89     5.08     1.38    21.00
   -0.39     2.22     0.04     3.00
   -0.41     2.35    -0.55     7.00
   -0.40     2.28    -0.12     6.00
   -0.49     2.83    -0.56     5.00
   -0.50     2.87     0.25    11.00
   -0.49     2.82    -0.45     7.00
   -0.61     3.52     0.44    20.00
   -0.38     2.20     0.35     3.00
   -0.41     2.38    -0.21     8.00
   -0.38     2.18     0.43     6.00
   -0.50     2.87    -0.15     5.00
   -0.49     2.81     0.66     9.00
   -0.50     2.87    -0.05     7.00
   -0.59     3.41     0.93    20.00
   -3.81    22.12    -6.01     4.00
   -3.94    22.89     0.41    12.00
   -2.63    15.28    -3.58    14.00
   -1.92    11.14    -0.59    15.00
   -1.47     8.56    -1.69    21.00
   -1.22     7.10     0.63    12.00
   -1.03     5.98    -0.96    18.00
   -0.90     5.22     0.65    21.00
   -3.91    22.74    -2.83     4.00
   -3.89    22.61     3.63    12.00
   -2.69    15.62    -1.39    14.00
   -1.88    10.96     2.16    15.00
   -1.50     8.70    -0.46    21.00
   -1.20     6.96     1.63    12.00
   -1.04     6.05    -0.11    20.00
   -0.88     5.09     1.38    21.00
   -0.38     2.24     0.04     6.00
   -0.39     2.32    -0.54     7.00
   -0.38     2.21    -0.12     5.00
   -0.48     2.83    -0.56     5.00
   -0.49     2.87     0.25     9.00
   -0.48     2.85    -0.46     7.00
   -0.60     3.50     0.44    20.00
   -0.38     2.22     0.36     7.00
   -0.40     2.35    -0.21     6.00
   -0.37     2.17     0.43     4.00
   -0.49     2.89    -0.15     5.00
   -0.48     2.80     0.66     9.00
   -0.49     2.88    -0.05     6.00
   -0.58     3.41     0.93    20.00
   -3.74    22.17    -6.02     4.00
   -3.86    22.91     0.41    12.00
   -2.58    15.28    -3.58    14.00
   -1.88    11.16    -0.59    15.00
   -1.44     8.56    -1.69    21.00
   -1.20     7.13     0.63    13.00
   -1.01     5.98    -0.96    19.00
   -0.88     5.22     0.65    23.00
   -3.82    22.64     3.64    12.00
   -2.63    15.62    -1.39    14.00
   -1.85    10.97     2.16    15.00
   -1.47     8.71    -0.46    22.00
   -1.17     6.96     1.63    13.00
   -1.02     6.06    -0.11    17.00
   -0.86     5.07     1.38    22.00
   -0.37     2.25     0.04     6.00
   -0.37     2.24    -0.52     3.00
   -0.37     2.19    -0.12     5.00
   -0.48     2.85    -0.56     5.00
   -0.48     2.86     0.25     9.00
   -0.47     2.84    -0.46     6.00
   -0.59     3.52     0.44    22.00
   -0.37     2.20     0.35     4.00
   -0.37     2.24    -0.20     2.00
   -0.36     2.17     0.43     4.00
   -0.48     2.89    -0.15     5.00
   -0.47     2.81     0.66    10.00
   -0.48     2.87    -0.05     5.00
   -0.57     3.43     0.93    26.00
   -3.79    22.96     0.41    12.00
   -2.52    15.29    -3.58    14.00
   -1.84    11.16    -0.59    15.00
   -1.42     8.58    -1.69    21.00
   -1.17     7.12     0.63    13.00
   -0.99     5.99    -0.96    18.00
   -0.86     5.22     0.65    22.00
   -3.74    22.69     3.64    18.00
   -2.58    15.65    -1.39    14.00
   -1.81    10.96     2.16    16.00
   -1.44     8.72    -0.46    20.00
   -1.15     6.96     1.63    13.00
   -1.00     6.06    -0.11    17.00
   -0.84     5.09     1.38    21.00
   -0.36     2.23     0.04     5.00
   -0.36     2.19    -0.51     1.00
   -0.36     2.21    -0.12     4.00
   -0.46     2.84    -0.56     5.00
   -0.47     2.89     0.26     9.00
   -0.46     2.84    -0.46     5.00
   -0.58     3.52     0.44    35.00
   -0.36     2.20     0.35     7.00
   -0.36     2.23    -0.20     2.00
   -0.36     2.18     0.43     4.00
   -0.47     2.88    -0.15     5.00
   -0.46     2.82     0.66     9.00
   -0.47     2.87    -0.05     5.00
   -0.56     3.43     0.93    56.00
   -3.71    22.98     0.41    18.00
   -2.47    15.30    -3.58    14.00
   -1.80    11.17    -0.59    15.00
   -1.38     8.58    -1.69    21.00
   -1.15     7.13     0.63    13.00
   -0.96     5.97    -0.96    18.00
   -0.85     5.24     0.65    21.00
   -3.67    22.72     3.65    18.00
   -2.52    15.64    -1.39    14.00
   -1.77    10.98     2.16    16.00
   -1.41     8.72    -0.46    22.00
   -1.13     6.98     1.63    12.00
   -0.98     6.06    -0.11    20.00
   -0.82     5.10     1.38    21.00
   -0.35     2.21     0.04     5.00
   -0.35     2.19    -0.51     1.00
   -0.35     2.21    -0.12     5.00
   -0.46     2.86    -0.56     5.00
   -0.46     2.86     0.25     9.00
   -0.46     2.85    -0.46     5.00
   -0.56     3.52     0.44    55.00
   -0.34     2.15     0.35     5.00
   -0.36     2.24    -0.20     2.00
   -0.35     2.17     0.43     5.00
   -0.46     2.90    -0.15     5.00
   -0.45     2.81     0.66     9.00
   -0.46     2.88    -0.05     5.00
   -0.55     3.43     0.93    55.00
   -3.64    23.04     0.41    18.00
   -2.41    15.24    -3.56    25.00
   -1.76    11.18    -0.59    15.00
   -1.35     8.58    -1.69    23.00
   -1.12     7.13     0.63    13.00
   -0.95     6.00    -0.96    19.00
   -0.82     5.22     0.65    23.00
   -3.59    22.77     3.65    18.00
   -2.46    15.58    -1.38    29.00
   -1.73    10.97     2.16    16.00
   -1.38     8.73    -0.46    22.00
   -1.10     6.96     1.63    13.00
   -0.96     6.07    -0.11    21.00
   -0.80     5.09     1.38    21.00
   -0.34     2.15     0.04     5.00
   -0.35     2.21    -0.52     2.00
   -0.35     2.22    -0.12     5.00
   -0.44     2.85    -0.56     5.00
   -0.45     2.89     0.26     9.00
   -0.44     2.83    -0.45     5.00
   -0.55     3.53     0.44    27.00
   -0.33     2.13     0.34     6.00
   -0.35     2.24    -0.20     1.00
   -0.34     2.18     0.43     4.00
   -0.45     2.89    -0.15     5.00
   -0.44     2.83     0.66     9.00
   -0.45     2.88    -0.05     5.00
   -0.53     3.41     0.92    11.00
   -3.56    23.06     0.41    18.00
   -2.36    15.32    -3.58    14.00
   -1.72    11.16    -0.59    15.00
   -1.32     8.59    -1.69    21.00
   -1.10     7.13     0.63    12.00
   -0.92     5.99    -0.96    19.00
   -0.81     5.24     0.65    21.00
   -3.52    22.79     3.65    18.00
   -2.42    15.66    -1.39    14.00
   -1.69    10.99     2.16    15.00
   -1.35     8.73    -0.46    21.00
   -1.08     6.98     1.63    12.00
   -0.94     6.06    -0.11    19.00
   -0.79     5.11     1.38    21.00
   -0.33     2.18     0.04     8.00
   -0.33     2.20    -0.51     1.00
   -0.34     2.23    -0.12     4.00
   -0.43     2.85    -0.56     5.00
   -0.44     2.88     0.25     9.00
   -0.43     2.85    -0.46     5.00
   -0.53     3.48     0.43    10.00
   -0.33     2.19     0.35    21.00
   -0.34     2.24    -0.20     1.00
   -0.33     2.18     0.43     5.00
   -0.44     2.90    -0.15     5.00
   -0.43     2.81     0.66     9.00
   -0.44     2.89    -0.05     5.00
   -0.51     3.36     0.91     8.00
   -3.48    23.11     0.41    18.00
   -2.31    15.33    -3.58    14.00
   -1.69    11.19    -0.59    16.00
   -1.29     8.59    -1.69    21.00
   -1.08     7.14     0.63    13.00
   -0.90     6.00    -0.96    20.00
   -0.79     5.24     0.65    23.00
   -0.98     6.50    -0.81     1.00
   -3.44    22.84     3.66    18.00
   -2.36    15.66    -1.39    14.00
   -1.66    11.00     2.16    16.00
   -1.32     8.74    -0.46    21.00
   -1.05     6.98     1.63    13.00
   -0.92     6.08    -0.11    21.00
   -0.77     5.09     1.38    23.00
   -0.33     2.22     0.04    39.00
   -0.33     2.20    -0.51     2.00
   -0.33     2.22    -0.12     4.00
   -0.43     2.86    -0.56     5.00
   -0.43     2.88     0.25     9.00
   -0.42     2.85    -0.46     5.00
   -0.51     3.45     0.43    10.00
   -0.33     2.19     0.35    40.00
   -0.34     2.26    -0.20     2.00
   -0.32     2.18     0.43     3.00
   -0.43     2.90    -0.15     5.00
   -0.42     2.82     0.66     9.00
   -0.43     2.88    -0.05     5.00
   -0.50     3.34     0.91    10.00
   -0.92     6.27    -1.70     1.00
   -3.41    23.15     0.41    18.00
   -2.25    15.32    -3.58    14.00
   -1.65    11.19    -0.59    15.00
   -1.26     8.59    -1.69    21.00
   -1.05     7.12     0.63    13.00
   -0.88     6.01    -0.96    20.00
   -0.77     5.23     0.65    23.00
   -0.94     6.41    -0.80     1.00
   -3.36    22.86     3.66    18.00
   -2.31    15.69    -1.39    14.00
   -1.62    10.99     2.16    15.00
   -1.29     8.76    -0.46    21.00
   -1.03     6.98     1.63    13.00
   -0.89     6.08    -0.11    19.00
   -0.75     5.11     1.38    21.00
   -0.32     2.23     0.04    45.00
   -0.32     2.19    -0.51     2.00
   -0.32     2.22    -0.12     3.00
   -0.42     2.86    -0.56     6.00
   -0.42     2.89     0.26     9.00
   -0.41     2.85    -0.46     5.00
   -0.50     3.41     0.42    10.00
   -0.32     2.21     0.35    51.00
   -0.33     2.24    -0.20     2.00
   -0.32     2.19     0.43     2.00
   -0.42     2.91    -0.15     5.00
   -0.41     2.82     0.66     9.00
   -0.42     2.89    -0.05     5.00
   -0.48     3.30     0.89    10.00
   -0.89     6.23    -1.69     1.00
   -3.32    23.16     0.41    18.00
   -2.20    15.34    -3.58    14.00
   -1.61    11.19    -0.59    13.00
   -1.24     8.60    -1.69    22.00
   -1.03     7.15     0.63    12.00
   -0.86     6.00    -0.96    21.00
   -0.75     5.25     0.65    21.00
   -0.92     6.41    -0.79     3.00
   -3.29    22.89     3.66    18.00
   -2.25    15.68    -1.39    14.00
   -1.58    11.01     2.16    15.00
   -1.26     8.75    -0.46    22.00
   -1.00     6.99     1.63    13.00
   -0.87     6.07    -0.11    19.00
   -0.73     5.11     1.38    19.00
   -0.32     2.24     0.04    53.00
   -0.31     2.20    -0.51     2.00
   -0.41     2.91    -0.15     5.00
   -0.41     2.86    -0.56     5.00
   -0.41     2.88     0.25     9.00
   -0.41     2.86    -0.46     5.00
   -0.48     3.38     0.42    10.00
   -0.31     2.21     0.35    50.00
   -0.32     2.24    -0.20     2.00
   -0.41     2.87     0.56     6.00
   -0.41     2.91    -0.15     5.00
   -0.40     2.83     0.66     9.00
   -0.41     2.89    -0.05     5.00
   -0.46     3.27     0.89    10.00
   -0.87     6.24    -1.69     2.00
   -3.25    23.21     0.41    18.00
   -2.15    15.34    -3.58    14.00
   -1.57    11.21    -0.59    16.00
   -1.20     8.60    -1.69    21.00
   -1.00     7.15     0.63    13.00
   -0.84     6.01    -0.96    20.00
   -0.73     5.24     0.65    22.00
   -0.89     6.39    -0.79     2.00
   -3.21    22.95     3.67    18.00
   -2.20    15.70    -1.39    14.00
   -1.54    11.01     2.16    15.00
   -1.23     8.75    -0.46    22.00
   -0.98     6.97     1.63    13.00
   -0.85     6.10    -0.11    20.00
   -0.72     5.11     1.38    21.00
   -0.31     2.23     0.04    48.00
   -0.30     2.18    -0.51     3.00
   -0.41     2.93    -0.15     6.00
   -0.40     2.86    -0.56     5.00
   -0.40     2.88     0.25     9.00
   -0.39     2.85    -0.46     5.00
   -0.46     3.35     0.42    10.00
   -0.31     2.21     0.35    48.00
   -0.32     2.29    -0.20     3.00
   -0.40     2.88     0.56     5.00
   -0.40     2.89    -0.15     5.00
   -0.39     2.84     0.66     8.00
   -0.40     2.89    -0.05     4.00
   -0.45     3.24     0.88     9.00
   -0.85     6.23    -1.68     2.00
   -3.18    23.25     0.41    18.00
   -2.10    15.37    -3.58    14.00
   -1.53    11.20    -0.59    16.00
   -1.18     8.62    -1.69    22.00
   -0.98     7.14     0.63    13.00
   -0.82     6.01    -0.96    18.00
   -0.72     5.25     0.65    19.00
   -0.87     6.40    -0.79     2.00
   -3.14    22.97     3.67    18.00
   -2.15    15.71    -1.39    14.00
   -1.51    11.02     2.16    15.00
   -1.20     8.76    -0.46    21.00
   -0.96     7.00     1.63    13.00
   -0.83     6.07    -0.11    20.00
   -0.70     5.11     1.38    19.00
   -0.30     2.25     0.04    35.00
   -0.31     2.30    -0.54     6.00
   -0.40     2.95    -0.16     5.00
   -0.39     2.87    -0.56     2.00
   -0.39     2.91     0.26     3.00
   -0.42     3.10    -0.49     3.00
   -0.45     3.30     0.41     9.00
   -0.30     2.22     0.35    33.00
   -0.30     2.24    -0.20    14.00
   -0.40     2.98     0.59     3.00
   -0.44     3.30    -0.17     9.00
   -0.43     3.19     0.74     7.00
   -0.45     3.32    -0.06    10.00
   -0.43     3.20     0.86     9.00
   -0.83     6.25    -1.69     2.00
   -3.10    23.29     0.41    18.00
   -2.04    15.36    -3.58    14.00
   -1.49    11.23    -0.59    16.00
   -1.15     8.61    -1.69    18.00
   -0.95     7.16     0.63    13.00
   -0.80     6.01    -0.96    19.00
   -0.70     5.26     0.65    18.00
   -0.85     6.41    -0.79     1.00
   -3.06    23.02     3.68    18.00
   -2.09    15.71    -1.39    14.00
   -1.47    11.04     2.16    13.00
   -1.17     8.78    -0.46     7.00
   -0.93     7.00     1.63    13.00
   -0.81     6.09    -0.11    19.00
   -0.68     5.10     1.38    20.00
   -0.29     2.24     0.04    22.00
   -0.28     2.14    -0.50    13.00
   -0.43     3.29    -0.17    11.00
   -0.43     3.27    -0.64    14.00
   -0.43     3.29     0.29     9.00
   -0.43     3.26    -0.52    10.00
   -0.43     3.27     0.41     9.00
   -0.29     2.21     0.35    14.00
   -0.26     1.98    -0.17    16.00
   -0.43     3.24     0.64    16.00
   -0.43     3.30    -0.17    17.00
   -0.42     3.21     0.75     9.00
   -0.43     3.28    -0.06    10.00
   -0.42     3.18     0.86     9.00
   -0.81     6.24    -1.69     1.00
   -3.02    23.34     0.41    12.00
   -1.99    15.37    -3.58    14.00
   -1.45    11.22    -0.59    15.00
   -0.83     6.44    -1.26    20.00
   -0.93     7.15     0.63    13.00
   -0.78     6.02    -0.96    17.00
   -0.68     5.26     0.65    21.00
   -0.83     6.42    -0.80     1.00
   -2.98    23.02     3.68    50.00
   -2.04    15.71    -1.39    14.00
   -1.43    11.02     2.16    15.00
   -0.85     6.57    -0.35    30.00
   -0.91     7.00     1.63    13.00
   -0.79     6.09    -0.11    19.00
   -0.66     5.13     1.39    21.00
   -0.29     2.25     0.04    13.00
   -0.24     1.90    -0.44    51.00
   -0.42     3.30    -0.17    20.00
   -0.41     3.22    -0.63    17.00
   -0.42     3.26     0.29     9.00
   -0.41     3.23    -0.52    11.00
   -0.41     3.24     0.40     9.00
   -0.28     2.21     0.35    18.00
   -0.25     1.93    -0.17    65.00
   -0.41     3.25     0.64    26.00
   -0.42     3.26    -0.17    16.00
   -0.41     3.18     0.74     9.00
   -0.42     3.27    -0.06    11.00
   -0.40     3.14     0.85     9.00
   -0.79     6.28    -1.70     1.00
   -2.94    23.34     0.41    81.00
   -1.94    15.38    -3.58    14.00
   -1.41    11.22    -0.59    15.00
   -0.82     6.47    -1.27    36.00
   -0.90     7.16     0.63    13.00
   -0.76     6.01    -0.96    19.00
   -0.66     5.26     0.65    21.00
   -2.90    23.03    -2.85     4.00
   -2.90    22.99     3.67    43.00
   -1.98    15.73    -1.39    14.00
   -1.39    11.04     2.16    16.00
   -0.83     6.59    -0.35    43.00
   -0.88     7.01     1.63    13.00
   -0.77     6.10    -0.11    20.00
   -0.64     5.12     1.38    19.00
   -0.28     2.25     0.04    11.00
   -0.23     1.89    -0.44    63.00
   -0.41     3.29    -0.17    27.00
   -0.40     3.19    -0.63    16.00
   -0.40     3.22     0.28     9.00
   -0.40     3.21    -0.51    10.00
   -0.40     3.21     0.40     9.00
   -0.28     2.23     0.36    14.00
   -0.24     1.94    -0.17    61.00
   -0.40     3.18     0.62    23.00
   -0.40     3.24    -0.17    16.00
   -0.39     3.14     0.73     9.00
   -0.40     3.22    -0.06    11.00
   -0.39     3.12     0.84     9.00
   -2.73    22.34    -6.03    26.00
   -2.84    23.17     0.41    36.00
   -1.88    15.37    -3.58    14.00
   -1.38    11.24    -0.59    13.00
   -0.79     6.49    -1.27    48.00
   -0.88     7.17     0.63    13.00
   -0.74     6.03    -0.96    19.00
   -0.64     5.25     0.65    22.00
   -2.80    22.84    -2.82    35.00
   -2.79    22.77     3.63    49.00
   -1.93    15.73    -1.39    14.00
   -1.35    11.04     2.16    13.00
   -0.81     6.61    -0.35    54.00
   -0.86     7.00     1.63    13.00
   -0.75     6.11    -0.11    20.00
   -0.63     5.11     1.38    22.00
   -0.27     2.24     0.04    15.00
   -0.23     1.90    -0.44    60.00
   -0.39     3.26    -0.17    28.00
   -0.38     3.16    -0.62    15.00
   -0.39     3.20     0.28     9.00
   -0.38     3.16    -0.50    10.00
   -0.39     3.19     0.39     9.00
   -0.27     2.21     0.35    18.00
   -0.23     1.94    -0.17    61.00
   -0.38     3.17     0.62    23.00
   -0.39     3.19    -0.17    13.00
   -0.38     3.11     0.72     9.00
   -0.38     3.19    -0.06    10.00
   -0.37     3.08     0.83     9.00
   -2.64    22.21    -5.99    70.00
   -2.73    22.99     0.40    72.00
   -1.83    15.38    -3.58    14.00
   -1.34    11.24    -0.59    15.00
   -0.77     6.52    -1.28    52.00
   -0.85     7.16     0.63    13.00
   -0.72     6.02    -0.96    18.00
   -0.63     5.27     0.65    19.00
   -2.71    22.82    -2.82    30.00
   -2.70    22.70     3.62    48.00
   -1.87    15.74    -1.39    14.00
   -1.31    11.05     2.16    13.00
   -0.79     6.62    -0.35    45.00
   -0.83     7.02     1.63    13.00
   -0.72     6.08    -0.11    16.00
   -0.61     5.13     1.38    18.00
   -0.26     2.24     0.04    12.00
   -0.22     1.89    -0.44    63.00
   -0.38     3.23    -0.17    25.00
   -0.37     3.13    -0.61    15.00
   -0.37     3.17     0.28    10.00
   -0.37     3.14    -0.50    10.00
   -0.37     3.14     0.39     8.00
   -0.26     2.21     0.35    15.00
   -0.23     1.94    -0.17    63.00
   -0.37     3.15     0.62    22.00
   -0.37     3.17    -0.17    14.00
   -0.36     3.08     0.71     9.00
   -0.37     3.17    -0.06    10.00
   -0.36     3.05     0.82     8.00
   -2.65    23.01     0.40    12.00
   -1.78    15.40    -3.58    14.00
   -1.30    11.24    -0.59    12.00
   -0.75     6.50    -1.27    35.00
   -0.83     7.18     0.63    13.00
   -0.69     6.02    -0.96    20.00
   -0.61     5.27     0.65    20.00
   -2.63    22.76     3.63    12.00
   -1.81    15.73    -1.39    14.00
   -1.28    11.07     2.17    15.00
   -0.76     6.62    -0.35    36.00
   -0.81     7.01     1.63    13.00
   -0.70     6.10    -0.11    17.00
   -0.59     5.12     1.38    21.00
   -0.25     2.23     0.04    18.00
   -0.22     1.90    -0.44    63.00
   -0.36     3.18    -0.17    22.00
   -0.35     3.11    -0.61    14.00
   -0.36     3.14     0.28     9.00
   -0.35     3.12    -0.50    11.00
   -0.35     3.12     0.39     8.00
   -0.25     2.19     0.35    22.00
   -0.22     1.95    -0.17    63.00
   -0.35     3.11     0.61    20.00
   -0.36     3.14    -0.17    14.00
   -0.35     3.06     0.71     8.00
   -0.36     3.13    -0.05    10.00
   -0.34     3.03     0.82     8.00
   -1.82    16.24    -4.38     2.00
   -1.88    16.83     0.30     2.00
   -1.72    15.39    -3.58    14.00
   -1.26    11.25    -0.59    13.00
   -0.73     6.50    -1.27    46.00
   -0.80     7.17     0.63    12.00
   -0.68     6.04    -0.96    18.00
   -0.59     5.26     0.65    22.00
   -1.87    16.74    -2.07     2.00
   -1.86    16.64     2.65     2.00
   -1.76    15.75    -1.39    14.00
   -1.24    11.06     2.16    13.00
   -0.74     6.63    -0.35    54.00
   -0.78     7.02     1.63    13.00
   -0.68     6.10    -0.11    18.00
   -0.57     5.13     1.38    19.00
   -0.24     2.22     0.04    24.00
   -0.21     1.91    -0.44    56.00
   -0.35     3.16    -0.17    18.00
   -0.34     3.06    -0.60    14.00
   -0.34     3.12     0.27     8.00
   -0.34     3.08    -0.49    10.00
   -0.34     3.09     0.38     8.00
   -0.24     2.20     0.35    27.00
   -0.22     1.96    -0.17    16.00
   -0.34     3.09     0.60    20.00
   -0.34     3.10    -0.16    13.00
   -0.33     3.02     0.70     8.00
   -0.34     3.11    -0.05    11.00
   -0.33     2.99     0.81     8.00
   -2.56    23.61     0.41     6.00
   -1.67    15.42    -3.58    14.00
   -1.22    11.25    -0.59    12.00
   -0.71     6.51    -1.27    55.00
   -0.78     7.18     0.63    12.00
   -0.65     6.02    -0.96    17.00
   -0.57     5.28     0.65    19.00
   -2.52    23.32     3.71     6.00
   -1.71    15.75    -1.39    14.00
   -1.20    11.07     2.16    13.00
   -0.72     6.61    -0.35    46.00
   -0.76     7.03     1.63    12.00
   -0.66     6.09    -0.11    18.00
   -0.56     5.13     1.38    19.00
   -0.24     2.22     0.04    33.00
   -0.20     1.92    -0.45    45.00
   -0.33     3.12    -0.16    20.00
   -0.33     3.06    -0.60    14.00
   -0.33     3.07     0.27     9.00
   -0.33     3.06    -0.49    11.00
   -0.33     3.07     0.38     8.00
   -0.23     2.17     0.35    42.00
   -0.21     1.96    -0.17    50.00
   -0.32     3.05     0.60    22.00
   -0.33     3.08    -0.16    13.00
   -0.32     2.99     0.69     8.00
   -0.33     3.08    -0.05    10.00
   -0.32     2.97     0.80     8.00
   -2.47    23.61     0.41     6.00
   -1.61    15.40    -3.58    14.00
   -1.18    11.26    -0.59    12.00
   -0.68     6.50    -1.27    45.00
   -0.75     7.18     0.63    11.00
   -0.63     6.04    -0.96    19.00
   -0.55     5.26     0.65    20.00
   -2.45    23.38     3.72     6.00
   -1.65    15.75    -1.39    14.00
   -1.16    11.07     2.16    13.00
   -0.69     6.60    -0.35    40.00
   -0.73     7.01     1.63    11.00
   -0.64     6.11    -0.11    18.00
   -0.54     5.13     1.38    17.00
   -0.22     2.17     0.04    97.00
   -0.20     1.93    -0.45    41.00
   -0.30     2.93    -0.15    10.00
   -0.31     3.03    -0.59    14.00
   -0.31     3.05     0.27     8.00
   -0.31     3.02    -0.48    10.00
   -0.31     3.04     0.38     8.00
   -0.20     1.97    -0.17    26.00
   -0.29     2.80     0.55    20.00
   -0.31     3.04    -0.16    13.00
   -0.31     2.98     0.69     8.00
   -0.31     3.05    -0.05    10.00
   -0.30     2.94     0.79     9.00
   -2.39    23.63     0.41     6.00
   -1.56    15.41    -3.58    14.00
   -1.14    11.26    -0.59    16.00
   -0.66     6.48    -1.27    30.00
   -0.73     7.17     0.63    11.00
   -0.61     6.04    -0.96    21.00
   -0.53     5.27     0.65    16.00
   -2.37    23.39     3.72     6.00
   -1.60    15.77    -1.39    14.00
   -1.12    11.07     2.16    12.00
   -0.67     6.58    -0.35     8.00
   -0.71     7.03     1.63    12.00
   -0.62     6.10    -0.11    18.00
   -0.52     5.15     1.39    20.00
   -0.22     2.22     0.04    11.00
   -0.22     2.19    -0.51    23.00
   -0.28     2.84    -0.15    20.00
   -0.30     3.00    -0.59    13.00
   -0.30     3.02     0.27     9.00
   -0.30     3.00    -0.48    10.00
   -0.30     3.00     0.37     9.00
   -0.22     2.19     0.35     8.00
   -0.24     2.44    -0.21    16.00
   -0.28     2.77     0.54    21.00
   -0.30     3.01    -0.16     9.00
   -0.29     2.94     0.68     9.00
   -0.30     3.04    -0.05    10.00
   -0.29     2.91     0.78     9.00
   -2.32    23.66     0.41     6.00
   -1.51    15.42    -3.58    14.00
   -1.10    11.28    -0.59    13.00
   -0.85     8.64    -1.69    20.00
   -0.70     7.20     0.63    12.00
   -0.59     6.04    -0.96    20.00
   -0.52     5.28     0.65    20.00
   -2.29    23.42     3.73     6.00
   -1.54    15.76    -1.39    14.00
   -1.09    11.09     2.17    12.00
   -0.86     8.80    -0.46    21.00
   -0.69     7.03     1.63    11.00
   -0.60     6.12    -0.11    18.00
   -0.50     5.12     1.38    22.00
   -0.21     2.22     0.04     6.00
   -0.23     2.39    -0.55    21.00
   -0.27     2.80    -0.15    22.00
   -0.27     2.86    -0.56     4.00
   -0.29     3.00     0.26     9.00
   -0.29     2.97    -0.47    11.00
   -0.29     2.99     0.37     8.00
   -0.21     2.18     0.35     5.00
   -0.24     2.45    -0.21    29.00
   -0.26     2.74     0.53    21.00
   -0.22     2.31    -0.12     2.00
   -0.28     2.93     0.68     9.00
   -0.29     2.99    -0.05    11.00
   -0.28     2.90     0.78     9.00
   -2.24    23.71     0.42     6.00
   -1.45    15.41    -3.57    14.00
   -1.06    11.28    -0.59    12.00
   -0.82     8.65    -1.69    21.00
   -0.68     7.18     0.63    12.00
   -0.57     6.05    -0.96    19.00
   -0.50     5.26     0.65    21.00
   -1.51    15.97    -1.97     2.00
   -2.21    23.43     3.73     6.00
   -1.49    15.78    -1.39    14.00
   -1.05    11.08     2.16    13.00
   -0.83     8.81    -0.46    20.00
   -0.66     7.03     1.63    11.00
   -0.58     6.11    -0.11    17.00
   -0.48     5.14     1.38    18.00
   -0.19     2.06     0.04     6.00
   -0.22     2.39    -0.55    30.00
   -0.26     2.78    -0.15    15.00
   -0.21     2.24    -0.44     6.00
   -0.28     2.99     0.26     9.00
   -0.27     2.95    -0.47    10.00
   -0.27     2.96     0.36     8.00
   -0.18     1.97     0.31     8.00
   -0.23     2.43    -0.21    31.00
   -0.25     2.71     0.53     4.00
   -0.21     2.29    -0.12     7.00
   -0.27     2.89     0.67     9.00
   -0.28     2.98    -0.05    10.00
   -0.27     2.86     0.77     9.00
   -2.17    23.80     0.42     6.00
   -1.40    15.44    -3.58    14.00
   -1.03    11.28    -0.59    13.00
   -0.79     8.65    -1.69    21.00
   -0.65     7.19     0.63    11.00
   -0.55     6.03    -0.96    19.00
   -0.48     5.29     0.65    19.00
   -1.54    16.95    -2.09     2.00
   -1.53    16.81     2.67     5.00
   -1.43    15.76    -1.38    10.00
   -1.01    11.09     2.16    12.00
   -0.80     8.79    -0.46    12.00
   -0.64     7.04     1.63    12.00
   -0.56     6.11    -0.11    18.00
   -0.47     5.13     1.38    18.00
   -0.18     1.99     0.03    21.00
   -0.21     2.39    -0.55    30.00
   -0.21     2.35    -0.12     3.00
   -0.20     2.23    -0.43     5.00
   -0.26     2.94     0.26     9.00
   -0.26     2.93    -0.47    10.00
   -0.26     2.92     0.36     9.00
   -0.17     1.96     0.31    43.00
   -0.22     2.45    -0.22    28.00
   -0.20     2.26     0.44     2.00
   -0.20     2.25    -0.12     8.00
   -0.26     2.86     0.66     9.00
   -0.26     2.94    -0.05    10.00
   -0.25     2.84     0.77     8.00
   -1.44    16.45    -4.43     2.00
   -1.49    17.04     0.30     8.00
   -1.34    15.36    -3.56     3.00
   -0.99    11.29    -0.59    12.00
   -0.57     6.50    -1.27     7.00
   -0.63     7.19     0.63    12.00
   -0.53     6.04    -0.96    19.00
   -0.46     5.27     0.65    22.00
   -1.48    16.92    -2.09     2.00
   -1.47    16.85     2.68     8.00
   -1.38    15.74    -1.38     3.00
   -0.97    11.09     2.16    13.00
   -0.58     6.62    -0.35    27.00
   -0.61     7.03     1.63    11.00
   -0.54     6.12    -0.11    19.00
   -0.45     5.13     1.38    22.00
   -0.17     1.97     0.03    47.00
   -0.21     2.40    -0.56     9.00
   -0.19     2.22    -0.12     4.00
   -0.18     2.09    -0.41     4.00
   -0.25     2.93     0.26     8.00
   -0.25     2.89    -0.46    10.00
   -0.25     2.92     0.36     8.00
   -0.17     1.95     0.31    34.00
   -0.21     2.40    -0.21     4.00
   -0.18     2.05     0.40     6.00
   -0.16     1.92    -0.10     8.00
   -0.24     2.83     0.65     8.00
   -0.25     2.91    -0.05    10.00
   -0.24     2.81     0.76     8.00
   -1.39    16.51    -4.44     2.00
   -1.43    17.08     0.30     8.00
   -0.95    11.28    -0.59    13.00
   -0.55     6.53    -1.27    43.00
   -0.60     7.18     0.63    11.00
   -0.51     6.04    -0.96    19.00
   -0.44     5.28     0.65    19.00
   -1.43    17.02    -2.10     2.00
   -1.42    16.87     2.68     8.00
   -0.93    11.09     2.16    12.00
   -0.56     6.66    -0.35    41.00
   -0.59     7.04     1.63    11.00
   -0.51     6.11    -0.11    18.00
   -0.43     5.15     1.38    21.00
   -0.16     1.98     0.03    24.00
   -0.19     2.29    -0.53     2.00
   -0.17     2.01    -0.11    12.00
   -0.15     1.88    -0.37     9.00
   -0.24     2.88     0.25     8.00
   -0.24     2.87    -0.46    10.00
   -0.24     2.87     0.35     8.00
   -0.16     1.95     0.31     9.00
   -0.16     1.96    -0.17     5.00
   -0.16     1.93     0.38    11.00
   -0.16     1.90    -0.10     9.00
   -0.23     2.79     0.65     9.00
   -0.24     2.91    -0.05    10.00
   -0.23     2.78     0.75     8.00
   -1.33    16.55    -4.45     2.00
   -1.38    17.11     0.30     8.00
   -0.91    11.30    -0.59    13.00
   -0.53     6.56    -1.28    46.00
   -0.58     7.20     0.63    12.00
   -0.49     6.04    -0.96    20.00
   -0.42     5.28     0.65    20.00
   -1.37    17.01    -2.10     2.00
   -1.36    16.92     2.69     8.00
   -0.89    11.11     2.17    12.00
   -0.54     6.68    -0.35    41.00
   -0.57     7.03     1.63    12.00
   -0.49     6.12    -0.11    17.00
   -0.41     5.14     1.38    17.00
   -0.16     1.97     0.03     9.00
   -0.15     1.90    -0.44     8.00
   -0.15     1.95    -0.10     8.00
   -0.15     1.86    -0.36     9.00
   -0.22     2.85     0.25     9.00
   -0.22     2.84    -0.45    10.00
   -0.22     2.86     0.35     8.00
   -0.15     1.93     0.31     6.00
   -0.15     1.96    -0.17     9.00
   -0.15     1.89     0.37     9.00
   -0.15     1.88    -0.10     9.00
   -0.22     2.80     0.65    10.00
   -0.22     2.86    -0.05    11.00
   -0.22     2.77     0.75     8.00
   -1.28    16.57    -4.45     2.00
   -1.32    17.14     0.30     8.00
   -0.87    11.30    -0.59    13.00
   -0.50     6.51    -1.27    13.00
   -0.55     7.18     0.63    11.00
   -0.47     6.06    -0.96    19.00
   -0.41     5.27     0.65    21.00
   -1.31    17.04    -2.10     2.00
   -1.30    16.93     2.69     8.00
   -1.22    15.86    -1.39     3.00
   -0.85    11.10     2.16    13.00
   -0.51     6.59    -0.35    12.00
   -0.54     7.03     1.63    11.00
   -0.47     6.11    -0.11    18.00
   -0.40     5.15     1.38    18.00
   -0.15     1.95     0.03     5.00
   -0.14     1.89    -0.44     9.00
   -0.14     1.92    -0.10     8.00
   -0.14     1.83    -0.36     9.00
   -0.21     2.84     0.25    21.00
   -0.21     2.82    -0.45    32.00
   -0.21     2.82     0.35    23.00
   -0.14     1.92     0.31     5.00
   -0.14     1.92    -0.17     9.00
   -0.14     1.88     0.37     8.00
   -0.14     1.86    -0.10     9.00
   -0.21     2.77     0.64    28.00
   -0.21     2.84    -0.05    41.00
   -0.21     2.74     0.74    35.00
   -1.22    16.63    -4.47     2.00
   -1.26    17.14     0.30     8.00
   -1.14    15.48    -3.58     3.00
   -0.83    11.31    -0.59    13.00
   -0.48     6.48    -1.26    12.00
   -0.53     7.20     0.63    11.00
   -0.44     6.04    -0.96    18.00
   -0.39     5.30     0.65    19.00
   -1.25    17.08    -2.10     2.00
   -1.25    16.96     2.69     8.00
   -1.16    15.82    -1.39     3.00
   -0.82    11.12     2.17    15.00
   -0.48     6.58    -0.35    14.00
   -0.52     7.04     1.63    13.00
   -0.45     6.12    -0.11    17.00
   -0.38     5.14     1.38    17.00
   -0.14     1.94     0.03     4.00
   -0.13     1.87    -0.43     9.00
   -0.14     1.90    -0.10     8.00
   -0.13     1.83    -0.36     9.00
   -0.20     2.81     0.25    20.00
   -0.20     2.81    -0.45    32.00
   -0.20     2.80     0.34    36.00
   -0.14     1.90     0.30     4.00
   -0.14     1.91    -0.17     9.00
   -0.13     1.85     0.36     9.00
   -0.13     1.85    -0.10     9.00
   -0.20     2.75     0.64     7.00
   -0.20     2.83    -0.05    13.00
   -0.20     2.73     0.73    14.00
   -1.17    16.70    -4.49     2.00
   -1.20    17.19     0.30     5.00
   -1.08    15.49    -3.58     3.00
   -0.79    11.31    -0.59    12.00
   -0.45     6.46    -1.26    14.00
   -0.50     7.20     0.63    13.00
   -0.42     6.05    -0.96    19.00
   -0.37     5.29     0.65    20.00
   -1.20    17.18    -2.11     2.00
   -1.19    17.00     2.70     8.00
   -1.11    15.80    -1.39     3.00
   -0.78    11.11     2.17    12.00
   -0.46     6.63    -0.35    29.00
   -0.49     7.02     1.63    13.00
   -0.43     6.13    -0.11    18.00
   -0.36     5.15     1.38    21.00
   -0.13     1.91     0.03     4.00
   -0.13     1.87    -0.43     9.00
   -0.13     1.89    -0.10     8.00
   -0.12     1.81    -0.35     9.00
   -0.14     2.08     0.18     6.00
   -0.19     2.78    -0.44     9.00
   -0.19     2.80     0.34    10.00
   -0.13     1.88     0.30     4.00
   -0.13     1.89    -0.17     9.00
   -0.13     1.85     0.36     8.00
   -0.12     1.82    -0.10     9.00
   -0.13     1.92     0.44     1.00
   -0.19     2.80    -0.05     9.00
   -0.18     2.70     0.73     9.00
   -1.11    16.78    -4.51     2.00
   -1.14    17.21     0.30    11.00
   -1.03    15.47    -3.58     3.00
   -0.75    11.30    -0.59    13.00
   -0.44     6.56    -1.28    52.00
   -0.48     7.19     0.63    13.00
   -0.40     6.05    -0.96    19.00
   -0.35     5.29     0.65    21.00
   -1.13    17.00     2.70    11.00
   -1.05    15.84    -1.39     3.00
   -0.74    11.11     2.16    12.00
   -0.44     6.65    -0.35    46.00
   -0.47     7.04     1.63    12.00
   -0.41     6.12    -0.11    20.00
   -0.34     5.16     1.39    19.00
   -0.12     1.91     0.03     4.00
   -0.12     1.84    -0.43     9.00
   -0.12     1.88    -0.10     8.00
   -0.12     1.79    -0.35     9.00
   -0.13     1.93     0.17     5.00
   -0.18     2.76    -0.44    10.00
   -0.18     2.76     0.34     9.00
   -0.12     1.88     0.30     4.00
   -0.12     1.87    -0.16     9.00
   -0.12     1.83     0.36     8.00
   -0.12     1.82    -0.10     9.00
   -0.12     1.87     0.43    13.00
   -0.18     2.78    -0.05    10.00
   -0.17     2.67     0.72     9.00
   -0.90    14.34    -3.85     7.00
   -1.09    17.23     0.30     8.00
   -0.98    15.47    -3.58     3.00
   -0.71    11.32    -0.59    12.00
   -0.41     6.51    -1.27    34.00
   -0.45     7.21     0.63    12.00
   -0.38     6.05    -0.96    18.00
   -0.33     5.29     0.65    19.00
   -0.93    14.70    -1.81    12.00
   -1.08    17.05     2.71    11.00
   -1.00    15.81    -1.39     3.00
   -0.70    11.13     2.17    12.00
   -0.42     6.61    -0.35    28.00
   -0.44     7.03     1.63    11.00
   -0.39     6.13    -0.11    18.00
   -0.32     5.13     1.38    22.00
   -0.12     1.88     0.03     4.00
   -0.11     1.83    -0.42     9.00
   -0.11     1.84    -0.10     8.00
   -0.11     1.78    -0.35     9.00
   -0.12     1.91     0.17    24.00
   -0.17     2.73    -0.43    10.00
   -0.17     2.74     0.34    10.00
   -0.11     1.84     0.29     4.00
   -0.11     1.86    -0.16     9.00
   -0.11     1.81     0.35     8.00
   -0.11     1.79    -0.09     9.00
   -0.12     1.88     0.43    28.00
   -0.17     2.74    -0.05    10.00
   -0.16     2.66     0.71     9.00
   -0.85    14.25    -3.83    12.00
   -1.03    17.28     0.30     8.00
   -0.92    15.48    -3.58     3.00
   -0.67    11.32    -0.59    12.00
   -0.39     6.50    -1.27    13.00
   -0.43     7.18     0.63    11.00
   -0.36     6.08    -0.96    21.00
   -0.32     5.29     0.65    19.00
   -0.87    14.58    -1.79     8.00
   -1.02    17.07     2.71    11.00
   -0.94    15.83    -1.39     3.00
   -0.66    11.11     2.16    12.00
   -0.53     8.82    -0.46    10.00
   -0.42     7.04     1.63    11.00
   -0.37     6.13    -0.11    21.00
   -0.31     5.15     1.38    19.00
   -0.11     1.87     0.03     4.00
   -0.11     1.82    -0.42     9.00
   -0.11     1.84    -0.10     9.00
   -0.10     1.76    -0.34     9.00
   -0.11     1.94     0.17    21.00
   -0.16     2.71    -0.43    10.00
   -0.16     2.72     0.33     9.00
   -0.11     1.84     0.29     4.00
   -0.11     1.84    -0.16     9.00
   -0.10     1.81     0.35     9.00
   -0.10     1.78    -0.09     9.00
   -0.11     1.89     0.44     7.00
   -0.16     2.74    -0.05    10.00
   -0.15     2.63     0.71     9.00
   -0.79    14.15    -3.80     7.00
   -0.97    17.29     0.30    12.00
   -0.87    15.48    -3.58     3.00
   -0.63    11.32    -0.59    12.00
   -0.49     8.66    -1.69    20.00
   -0.40     7.20     0.63    11.00
   -0.34     6.05    -0.96    17.00
   -0.30     5.30     0.65    17.00
   -0.81    14.49    -1.78     3.00
   -0.96    17.09     2.71     9.00
   -0.89    15.83    -1.39     3.00
   -0.62    11.13     2.17    12.00
   -0.49     8.82    -0.46    21.00
   -0.40     7.05     1.63    11.00
   -0.34     6.13    -0.11    18.00
   -0.29     5.16     1.39    21.00
   -0.10     1.85     0.03     4.00
   -0.10     1.80    -0.42     9.00
   -0.10     1.82    -0.10     9.00
   -0.10     1.75    -0.34     9.00
   -0.10     1.88     0.16     4.00
   -0.15     2.69    -0.43    10.00
   -0.15     2.70     0.33     9.00
   -0.10     1.79     0.28     3.00
   -0.10     1.83    -0.16     9.00
   -0.10     1.77     0.34     9.00
   -0.10     1.78    -0.09     9.00
   -0.10     1.80     0.42     8.00
   -0.15     2.70    -0.05     9.00
   -0.14     2.62     0.70     9.00
   -0.16     3.13    -0.84     1.00
   -0.91    17.32     0.30     9.00
   -0.81    15.48    -3.58     3.00
   -0.60    11.33    -0.59    11.00
   -0.46     8.67    -1.69    22.00
   -0.38     7.19     0.63    11.00
   -0.32     6.07    -0.96    21.00
   -0.28     5.28     0.65    22.00
   -0.17     3.16    -0.39    10.00
   -0.90    17.13     2.72     9.00
   -0.83    15.85    -1.39     3.00
   -0.59    11.13     2.17    11.00
   -0.46     8.82    -0.46    21.00
   -0.37     7.03     1.62    11.00
   -0.32     6.14    -0.11    20.00
   -0.27     5.14     1.38    21.00
   -0.09     1.71     0.03     3.00
   -0.09     1.79    -0.41     9.00
   -0.09     1.81    -0.09     9.00
   -0.09     1.74    -0.34     9.00
   -0.09     1.83     0.16    16.00
   -0.14     2.66    -0.42    10.00
   -0.14     2.68     0.33     9.00
   -0.09     1.81    -0.16     9.00
   -0.09     1.78     0.35     8.00
   -0.09     1.75    -0.09     9.00
   -0.09     1.79     0.41    31.00
   -0.14     2.68    -0.05    10.00
   -0.13     2.59     0.69    10.00
   -0.15     3.09    -0.83    21.00
   -0.85    17.35     0.30     9.00
   -0.76    15.50    -3.58     3.00
   -0.56    11.31    -0.59    11.00
   -0.43     8.68    -1.69    20.00
   -0.35     7.18     0.63    11.00
   -0.30     6.06    -0.96    17.00
   -0.26     5.30     0.65    18.00
   -0.16     3.16    -0.39     5.00
   -0.84    17.15     2.72     6.00
   -0.78    15.85    -1.39     3.00
   -0.55    11.12     2.16    11.00
   -0.43     8.82    -0.46    21.00
   -0.33     6.77     1.57    11.00
   -0.30     6.13    -0.11    20.00
   -0.25     5.16     1.38    21.00
   -0.08     1.76    -0.41     9.00
   -0.08     1.80    -0.09     8.00
   -0.08     1.72    -0.34     9.00
   -0.09     1.83     0.16    33.00
   -0.13     2.65    -0.42    10.00
   -0.13     2.65     0.33     9.00
   -0.09     1.80    -0.16     9.00
   -0.08     1.75     0.34     8.00
   -0.08     1.76    -0.09     9.00
   -0.08     1.78     0.41    33.00
   -0.12     2.57     0.69     9.00
   -0.63    13.90    -3.73     1.00
   -0.79    17.37     0.30     6.00
   -0.71    15.49    -3.58     3.00
   -0.52    11.33    -0.59    12.00
   -0.39     8.66    -1.69    20.00
   -0.32     6.91     0.61    18.00
   -0.28     6.05    -0.96    21.00
   -0.24     5.29     0.65    19.00
   -0.78    17.18     2.72     9.00
   -0.72    15.82    -1.39     3.00
   -0.51    11.15     2.17    12.00
   -0.40     8.81    -0.46    10.00
   -0.32     7.01     1.62     9.00
   -0.28     6.14    -0.11    20.00
   -0.23     5.14     1.38    22.00
   -0.08     1.75    -0.40     9.00
   -0.08     1.78    -0.09     8.00
   -0.08     1.72    -0.34     9.00
   -0.08     1.82     0.16    35.00
   -0.08     1.79    -0.28     1.00
   -0.12     2.65     0.33    11.00
   -0.08     1.78    -0.16     9.00
   -0.08     1.74     0.34     8.00
   -0.08     1.74    -0.09     9.00
   -0.08     1.78     0.41    46.00
   -0.08     1.76    -0.03     5.00
   -0.11     2.56     0.69     9.00
   -0.73    17.42     0.30    12.00
   -0.65    15.49    -3.58     3.00
   -0.48    11.33    -0.59    12.00
   -0.28     6.62    -1.29    19.00
   -0.30     7.18     0.63    10.00
   -0.26     6.07    -0.96    20.00
   -0.22     5.30     0.65    21.00
   -0.72    17.21     2.73    12.00
   -0.67    15.84    -1.39     3.00
   -0.47    11.13     2.17    12.00
   -0.28     6.73    -0.35    37.00
   -0.30     7.03     1.62    11.00
   -0.26     6.13    -0.11    17.00
   -0.22     5.16     1.38    19.00
   -0.07     1.72    -0.40     9.00
   -0.07     1.77    -0.09    10.00
   -0.07     1.69    -0.33     9.00
   -0.07     1.83     0.16    51.00
   -0.07     1.76    -0.28    12.00
   -0.11     2.62     0.32     9.00
   -0.07     1.70    -0.15     9.00
   -0.07     1.74     0.34     9.00
   -0.07     1.72    -0.09     9.00
   -0.07     1.77     0.41    53.00
   -0.07     1.79    -0.03    25.00
   -0.10     2.53     0.68    10.00
   -0.67    17.42     0.30     9.00
   -0.60    15.48    -3.58     3.00
   -0.44    11.33    -0.59    13.00
   -0.25     6.59    -1.28    36.00
   -0.28     7.20     0.63    11.00
   -0.23     6.05    -0.96    17.00
   -0.20     5.30     0.65    19.00
   -0.66    17.22     2.73    12.00
   -0.61    15.84    -1.39     3.00
   -0.43    11.14     2.17    13.00
   -0.26     6.69    -0.35    37.00
   -0.27     7.05     1.63    11.00
   -0.24     6.13    -0.11    19.00
   -0.20     5.15     1.38    19.00
   -0.06     1.58    -0.37    10.00
   -0.06     1.75    -0.09    10.00
   -0.06     1.69    -0.33     9.00
   -0.07     1.81     0.16    53.00
   -0.07     1.78    -0.28    38.00
   -0.10     2.59     0.32    10.00
   -0.06     1.60    -0.14    18.00
   -0.06     1.72     0.33    11.00
   -0.06     1.73    -0.09     9.00
   -0.07     1.77     0.41    53.00
   -0.07     1.77    -0.03    47.00
   -0.09     2.52     0.68    10.00
   -0.61    17.47     0.31     9.00
   -0.54    15.48    -3.57     3.00
   -0.40    11.36    -0.60    13.00
   -0.23     6.57    -1.28    43.00
   -0.25     7.19     0.63    11.00
   -0.21     6.06    -0.96    18.00
   -0.19     5.28     0.65    21.00
   -0.61    17.27     2.74    12.00
   -0.56    15.83    -1.39     3.00
   -0.39    11.14     2.17    13.00
   -0.24     6.70    -0.35    45.00
   -0.24     6.98     1.61    11.00
   -0.22     6.14    -0.11    16.00
   -0.18     5.16     1.38    20.00
   -0.05     1.56    -0.36    31.00
   -0.06     1.73    -0.09    10.00
   -0.06     1.68    -0.33     9.00
   -0.06     1.82     0.16    53.00
   -0.06     1.75    -0.28    55.00
   -0.09     2.58     0.32    10.00
   -0.05     1.58    -0.14    46.00
   -0.06     1.71     0.33    10.00
   -0.06     1.70    -0.09    10.00
   -0.06     1.78     0.41    58.00
   -0.06     1.76    -0.03    51.00
   -0.08     2.50     0.67     9.00
   -0.56    17.48     0.31    12.00
   -0.49    15.49    -3.58     3.00
   -0.36    11.32    -0.59    15.00
   -0.21     6.59    -1.28    46.00
   -0.23     7.09     0.62    14.00
   -0.19     6.06    -0.96    17.00
   -0.17     5.30     0.65    20.00
   -0.55    17.29     2.74    12.00
   -0.50    15.86    -1.39     3.00
   -0.35    11.15     2.17    15.00
   -0.21     6.69    -0.35    47.00
   -0.22     6.94     1.60    10.00
   -0.19     6.12    -0.11    18.00
   -0.16     5.17     1.39    19.00
   -0.05     1.53    -0.35    42.00
   -0.05     1.74    -0.09    10.00
   -0.05     1.66    -0.32    10.00
   -0.05     1.82     0.16    48.00
   -0.05     1.75    -0.28    53.00
   -0.08     2.55     0.31     9.00
   -0.05     1.57    -0.14    39.00
   -0.05     1.70     0.33    11.00
   -0.05     1.71    -0.09    16.00
   -0.05     1.73     0.40    32.00
   -0.05     1.77    -0.03    55.00
   -0.07     2.47     0.66     9.00
   -0.50    17.53     0.31    12.00
   -0.44    15.48    -3.58     3.00
   -0.32    11.34    -0.59    15.00
   -0.19     6.57    -1.28    46.00
   -0.20     7.08     0.62     4.00
   -0.17     6.06    -0.96    19.00
   -0.15     5.30     0.65    19.00
   -0.09     3.20    -0.39     1.00
   -0.49    17.32     2.74    12.00
   -0.45    15.83    -1.39     3.00
   -0.32    11.16     2.17    12.00
   -0.19     6.70    -0.35    44.00
   -0.20     6.94     1.60     3.00
   -0.17     6.13    -0.11    19.00
   -0.15     5.15     1.38    19.00
   -0.04     1.53    -0.35    31.00
   -0.05     1.71    -0.09    14.00
   -0.04     1.69    -0.33    31.00
   -0.05     1.74     0.15    45.00
   -0.05     1.75    -0.28    60.00
   -0.07     2.54     0.31     9.00
   -0.04     1.56    -0.14    32.00
   -0.04     1.68     0.33    15.00
   -0.04     1.69    -0.09    38.00
   -0.05     1.72     0.40    51.00
   -0.05     1.76    -0.03    62.00
   -0.07     2.47     0.66    10.00
   -0.08     3.09    -0.83     5.00
   -0.44    17.56     0.31    12.00
   -0.38    15.48    -3.57     3.00
   -0.28    11.34    -0.59    13.00
   -0.16     6.60    -1.28    40.00
   -0.18     7.08     0.62     3.00
   -0.15     6.07    -0.96    18.00
   -0.13     5.29     0.65    21.00
   -0.08     3.20    -0.39    20.00
   -0.43    17.35     2.75     9.00
   -0.39    15.85    -1.39     3.00
   -0.28    11.15     2.17    12.00
   -0.17     6.72    -0.35    37.00
   -0.17     6.94     1.60     3.00
   -0.15     6.13    -0.11    19.00
   -0.13     5.15     1.38    20.00
   -0.03     1.51    -0.35    32.00
   -0.04     1.75    -0.09    18.00
   -0.04     1.66    -0.32    41.00
   -0.04     1.76     0.15    46.00
   -0.04     1.75    -0.28    65.00
   -0.06     2.52     0.31     9.00
   -0.04     1.54    -0.13    33.00
   -0.04     1.74     0.34    34.00
   -0.04     1.69    -0.09    37.00
   -0.04     1.71     0.39    31.00
   -0.04     1.78    -0.03    66.00
   -0.06     2.43     0.65    10.00
   -0.07     3.11    -0.83    10.00
   -0.37    17.58     0.31     6.00
   -0.33    15.49    -3.58     3.00
   -0.24    11.35    -0.60    15.00
   -0.14     6.61    -1.28    32.00
   -0.15     7.10     0.62     3.00
