    5.19    -1.20     0.65    14.00
    3.98    -0.92    -0.50    51.00
    5.59    -1.29     0.91    94.00
   10.03    -2.32     2.00    23.00
    8.72    -2.02    -0.47    42.00
    7.01    -1.62     1.66     9.00
    5.99    -1.38    -0.11     7.00
    5.04    -1.16     1.39    28.00
    3.94    -0.92    -0.64     6.00
    3.94    -0.92     0.50    21.00
    3.98    -0.93    -0.07     6.00
    3.84    -0.89     1.06    17.00
    3.86    -0.91    -1.06    48.00
    5.67    -1.33     0.10    88.00
   10.20    -2.39    -0.55    22.00
    8.57    -2.01    -1.71    45.00
    7.15    -1.68     0.64     9.00
    5.91    -1.39    -0.96     6.00
    5.15    -1.21     0.65    39.00
    3.97    -0.93    -0.50    48.00
    5.61    -1.32     0.91    88.00
   10.00    -2.35     2.00    12.00
    8.72    -2.05    -0.47    43.00
    6.98    -1.64     1.65     9.00
    5.99    -1.41    -0.11     7.00
    5.02    -1.18     1.38    37.00
    3.94    -0.93    -0.64     7.00
    3.95    -0.93     0.50    19.00
    3.99    -0.94    -0.07     7.00
    3.84    -0.91     1.06    17.00
    3.86    -0.92    -1.06    48.00
    5.67    -1.35     0.10    94.00
   10.11    -2.41    -0.54    11.00
    8.57    -2.04    -1.71    45.00
    7.14    -1.70     0.64     9.00
    5.91    -1.41    -0.96     7.00
    5.16    -1.23     0.65    43.00
    3.98    -0.95    -0.50    49.00
    5.60    -1.33     0.91    88.00
    9.96    -2.37     1.99    12.00
    8.71    -2.08    -0.47    45.00
    6.99    -1.66     1.66     9.00
    5.98    -1.42    -0.11     7.00
    5.01    -1.19     1.38    49.00
    3.95    -0.95    -0.64     7.00
    3.94    -0.94     0.50    19.00
    4.01    -0.96    -0.07     9.00
    3.84    -0.92     1.06    21.00
    3.88    -0.94    -1.07    48.00
    5.67    -1.37     0.10    88.00
   10.14    -2.45    -0.55    11.00
    8.55    -2.07    -1.71    46.00
    7.14    -1.73     0.64     9.00
    5.90    -1.43    -0.96     7.00
    5.15    -1.25     0.65    49.00
    3.98    -0.96    -0.50    49.00
    5.61    -1.36     0.91    88.00
    9.97    -2.41     1.99    12.00
    8.70    -2.10    -0.47    46.00
    6.98    -1.69     1.66     9.00
    5.97    -1.44    -0.11     6.00
    5.02    -1.21     1.38    50.00
    3.94    -0.96    -0.64    10.00
    3.95    -0.96     0.50    17.00
    3.98    -0.97    -0.07    10.00
    3.85    -0.94     1.06    16.00
    3.86    -0.95    -1.06    49.00
    5.67    -1.39     0.10    88.00
   10.13    -2.49    -0.55    12.00
    8.55    -2.10    -1.71    47.00
    7.13    -1.75     0.64     9.00
    5.90    -1.45    -0.96     7.00
    5.14    -1.26     0.65    50.00
    3.98    -0.98    -0.50    48.00
    5.60    -1.37     0.91    85.00
    9.96    -2.45     1.99    12.00
    8.71    -2.14    -0.47    48.00
    6.97    -1.71     1.66     9.00
    5.96    -1.46    -0.11     7.00
    5.02    -1.23     1.39    55.00
    3.94    -0.98    -0.64    10.00
    3.94    -0.98     0.50    17.00
    3.99    -0.99    -0.07    10.00
    3.83    -0.95     1.06    17.00
    3.86    -0.96    -1.07    49.00
    5.66    -1.41     0.10    85.00
    9.94    -2.48    -2.36     2.00
   10.13    -2.53    -0.55    12.00
    8.55    -2.13    -1.71    47.00
    7.13    -1.78     0.64     9.00
    5.96    -1.49    -0.97     9.00
    5.16    -1.29     0.65    55.00
    3.98    -0.99    -0.50    51.00
    5.60    -1.40     0.91    85.00
   10.19    -2.54    -0.92     5.00
    9.97    -2.49     2.00    11.00
    8.70    -2.17    -0.47    47.00
    6.98    -1.74     1.66     9.00
    6.07    -1.51    -0.11    16.00
    5.01    -1.25     1.38    51.00
    3.95    -0.99    -0.64    10.00
    3.94    -0.99     0.50    19.00
    3.99    -1.00    -0.07    10.00
    3.85    -0.97     1.06    17.00
    3.87    -0.98    -1.07    52.00
    5.67    -1.43     0.10    85.00
   10.03    -2.54    -2.39     2.00
   10.14    -2.57    -0.55    12.00
    8.55    -2.16    -1.71    48.00
    7.12    -1.80     0.64     8.00
    5.97    -1.51    -0.98    15.00
    5.14    -1.30     0.65    53.00
    3.97    -1.00    -0.50    52.00
    5.61    -1.42     0.92    88.00
    9.97    -2.52     2.00    12.00
    8.71    -2.20    -0.47    51.00
    6.95    -1.76     1.65     9.00
    6.05    -1.53    -0.11    15.00
    5.01    -1.27     1.39    53.00
    3.93    -1.00    -0.64    12.00
    3.96    -1.01     0.50    17.00
    3.99    -1.02    -0.07    12.00
    3.84    -0.98     1.06    17.00
    3.87    -0.99    -1.07    51.00
    5.67    -1.46     0.10    82.00
    8.56    -2.20    -1.72    51.00
    7.10    -1.82     0.64     9.00
    5.96    -1.53    -0.98    15.00
    5.16    -1.32     0.65    56.00
    3.99    -1.02    -0.51    49.00
    5.60    -1.44     0.92    85.00
    8.85    -2.27    -0.80    12.00
    8.74    -2.24     1.75    11.00
    8.71    -2.24    -0.47    51.00
    6.96    -1.79     1.66     8.00
    6.02    -1.55    -0.11    15.00
    5.03    -1.29     1.39    56.00
    8.82    -2.28     0.80     2.00
    3.94    -1.02    -0.64    12.00
    3.94    -1.02     0.50    17.00
    8.93    -2.31    -0.48     1.00
    8.60    -2.22     2.05     2.00
    4.00    -1.03    -0.07    12.00
    3.84    -0.99     1.06    17.00
    5.53    -1.44    -1.53    18.00
    5.67    -1.48     0.10    88.00
    8.61    -2.24    -2.06    14.00
    8.84    -2.30    -0.48    12.00
    8.56    -2.23    -1.72    50.00
    7.11    -1.85     0.64     8.00
    5.96    -1.55    -0.98    15.00
    5.16    -1.34     0.65    56.00
    5.65    -1.47    -0.72    33.00
    5.60    -1.46     0.92    85.00
    8.76    -2.28    -0.79    28.00
    8.67    -2.26     1.74    34.00
    8.71    -2.27    -0.47    48.00
    6.95    -1.81     1.66     9.00
    6.04    -1.57    -0.11    15.00
    5.01    -1.31     1.39    56.00
    8.69    -2.28    -1.75     1.00
    8.77    -2.30     0.79     2.00
    3.94    -1.03    -0.65    10.00
    3.95    -1.04     0.50    16.00
    8.61    -2.26     2.05     2.00
    3.98    -1.04    -0.07    12.00
    3.85    -1.01     1.07    14.00
    5.49    -1.45    -1.52    42.00
    5.68    -1.50     0.10    88.00
    8.57    -2.26    -2.05    52.00
    8.80    -2.32    -0.48    46.00
    8.56    -2.26    -1.72    46.00
    7.09    -1.87     0.64     8.00
    5.96    -1.58    -0.98    15.00
    5.15    -1.36     0.65    56.00
    5.64    -1.49    -0.72    43.00
    5.61    -1.48     0.92    88.00
    8.76    -2.31    -0.79    56.00
    8.64    -2.28     1.74    42.00
    8.71    -2.30    -0.47    45.00
    6.94    -1.83     1.66     8.00
    6.03    -1.59    -0.11    15.00
    5.03    -1.33     1.39    59.00
    3.94    -1.05    -0.65    10.00
    3.95    -1.05     0.50    16.00
    3.99    -1.06    -0.07    12.00
    3.83    -1.02     1.06    14.00
    5.50    -1.47    -1.52    43.00
    5.67    -1.52     0.10    88.00
    8.57    -2.30    -2.05    24.00
    8.79    -2.35    -0.48    11.00
    8.55    -2.29    -1.72    43.00
    7.10    -1.90     0.64     8.00
    5.94    -1.59    -0.97    15.00
    5.16    -1.38     0.66    54.00
    5.66    -1.52    -0.72    41.00
    5.61    -1.50     0.92    88.00
    9.97    -2.67     2.01    11.00
    8.70    -2.33    -0.47    40.00
    6.94    -1.86     1.66     8.00
    6.02    -1.61    -0.11    15.00
    5.03    -1.35     1.39    63.00
    3.95    -1.07    -0.65    12.00
    3.94    -1.06     0.50    14.00
    3.99    -1.08    -0.07    12.00
    3.85    -1.04     1.07    16.00
    5.50    -1.49    -1.53    38.00
    5.68    -1.54     0.10    72.00
   10.14    -2.75    -0.55    11.00
    8.55    -2.32    -1.72    38.00
    7.08    -1.92     0.64     8.00
    5.95    -1.62    -0.98    14.00
    5.14    -1.40     0.65    56.00
    5.64    -1.53    -0.72    41.00
    5.62    -1.53     0.92    79.00
    9.96    -2.70     2.01    11.00
    8.71    -2.37    -0.47    36.00
    6.93    -1.88     1.66     9.00
    6.02    -1.63    -0.11    14.00
    5.02    -1.36     1.39    56.00
    3.93    -1.08    -0.65    12.00
    3.96    -1.08     0.50    16.00
    3.99    -1.09    -0.07    12.00
    3.84    -1.05     1.07    14.00
    5.49    -1.51    -1.52    43.00
    5.67    -1.56     0.10    79.00
   10.13    -2.79    -0.55    11.00
    8.56    -2.36    -1.72    35.00
    7.08    -1.95     0.64     8.00
    5.94    -1.64    -0.98    15.00
    5.16    -1.42     0.66    60.00
    5.65    -1.55    -0.72    42.00
    5.60    -1.54     0.92    82.00
    9.97    -2.74     2.01    11.00
    8.70    -2.39    -0.47    27.00
    6.94    -1.91     1.66     8.00
    6.00    -1.65    -0.11    16.00
    5.03    -1.38     1.40    56.00
    3.95    -1.09    -0.65    13.00
    3.94    -1.09     0.50    14.00
    4.01    -1.11    -0.07    13.00
    3.84    -1.07     1.07    14.00
    5.51    -1.54    -1.53    18.00
    5.67    -1.58     0.10    85.00
   10.15    -2.83    -0.55    11.00
    8.54    -2.38    -1.72    25.00
    7.09    -1.98     0.64     8.00
    5.93    -1.66    -0.98    15.00
    5.15    -1.44     0.66    60.00
    5.61    -1.57     0.92    79.00
    9.98    -2.79     2.01    11.00
    8.69    -2.42    -0.47    21.00
    6.92    -1.93     1.66     9.00
    6.02    -1.68    -0.11    15.00
    5.01    -1.40     1.39    55.00
    3.94    -1.11    -0.65    12.00
    3.96    -1.11     0.50    16.00
    3.99    -1.12    -0.07    12.00
    3.85    -1.08     1.07    14.00
    5.67    -1.60    -1.58     1.00
    5.68    -1.61     0.10    85.00
   10.13    -2.86    -0.55    11.00
    8.54    -2.42    -1.73    21.00
    7.07    -2.00     0.64     9.00
    5.94    -1.68    -0.98    15.00
    5.16    -1.46     0.66    53.00
    5.61    -1.59     0.92    85.00
   11.84    -3.35    -1.08     3.00
    9.97    -2.82     2.01    11.00
    8.69    -2.46    -0.47    20.00
    6.92    -1.96     1.66     9.00
    6.01    -1.70    -0.11    15.00
    5.03    -1.42     1.40    53.00
    3.94    -1.12    -0.65    12.00
    3.95    -1.12     0.50    14.00
    4.00    -1.14    -0.07    13.00
    3.84    -1.09     1.07    14.00
    5.66    -1.62     0.10    82.00
   11.57    -3.32    -2.78     3.00
   10.13    -2.90    -0.55    11.00
    8.52    -2.44    -1.72    17.00
    7.07    -2.03     0.64     9.00
    5.92    -1.70    -0.97    15.00
    5.17    -1.48     0.66    45.00
    5.61    -1.61     0.92    82.00
   11.83    -3.39    -1.08     3.00
    9.98    -2.86     2.02    11.00
    8.66    -2.48    -0.47    16.00
    6.91    -1.98     1.66     9.00
    6.00    -1.72    -0.11    15.00
    5.02    -1.44     1.40    42.00
    3.96    -1.14    -0.65    13.00
    3.95    -1.14     0.51    14.00
    4.00    -1.15    -0.07    13.00
    3.85    -1.11     1.07    14.00
    8.62    -2.50    -2.41     1.00
    5.68    -1.65     0.10    82.00
   10.15    -2.95    -0.55    11.00
    8.51    -2.47    -1.72    16.00
    7.05    -2.05     0.64     9.00
    5.93    -1.72    -0.98    15.00
    5.14    -1.49     0.66    36.00
    8.86    -2.57    -1.13     1.00
    5.62    -1.63     0.93    82.00
    9.97    -2.90     2.02    12.00
    8.66    -2.52    -0.47    17.00
    6.89    -2.00     1.66     9.00
    6.01    -1.74    -0.11    15.00
    5.02    -1.46     1.40    33.00
    3.94    -1.15    -0.65    12.00
    3.97    -1.16     0.51    14.00
    3.99    -1.17    -0.07    12.00
    3.86    -1.13     1.08    14.00
    8.61    -2.53    -2.41     1.00
    5.67    -1.67     0.10    82.00
   10.14    -2.98    -0.55    12.00
    8.51    -2.50    -1.72    17.00
    7.04    -2.07     0.64     9.00
    5.92    -1.74    -0.98    15.00
    5.15    -1.52     0.66    28.00
    5.60    -1.65     0.92    79.00
    9.98    -2.93     2.02    12.00
    8.65    -2.54    -0.47    16.00
    6.90    -2.03     1.66     8.00
    5.98    -1.76    -0.11    15.00
    5.02    -1.48     1.40    19.00
    3.96    -1.17    -0.65    13.00
    3.95    -1.17     0.51    14.00
    4.01    -1.19    -0.07    13.00
    3.85    -1.14     1.08    14.00
    5.59    -1.67    -1.56     5.00
    5.67    -1.69     0.10    78.00
   10.15    -3.02    -0.55    11.00
    8.48    -2.53    -1.72    16.00
    7.05    -2.10     0.64     8.00
    5.91    -1.76    -0.98    15.00
    5.16    -1.54     0.66    16.00
    5.75    -1.71    -0.74    17.00
    5.61    -1.67     0.93    79.00
    9.99    -2.98     2.03    11.00
    8.64    -2.57    -0.47    16.00
    6.88    -2.05     1.66     8.00
    5.99    -1.78    -0.11    15.00
    5.00    -1.49     1.40    15.00
    3.95    -1.18    -0.65    12.00
    3.96    -1.19     0.51    14.00
    3.99    -1.20    -0.07    12.00
    3.85    -1.16     1.08    14.00
    5.59    -1.69    -1.56    20.00
    5.68    -1.71     0.10    75.00
   10.16    -3.06    -0.56    11.00
    8.49    -2.56    -1.72    16.00
    7.03    -2.12     0.64     8.00
    5.91    -1.78    -0.98    14.00
    5.15    -1.55     0.66    16.00
    5.74    -1.73    -0.74    21.00
    5.60    -1.69     0.93    78.00
    9.98    -3.01     2.03    12.00
    8.64    -2.61    -0.47    15.00
    6.88    -2.08     1.66     8.00
    5.97    -1.80    -0.11    15.00
    4.99    -1.51     1.40    14.00
    3.95    -1.20    -0.65    12.00
    3.96    -1.20     0.51    14.00
    4.01    -1.22    -0.07    12.00
    3.84    -1.17     1.08    14.00
    5.58    -1.70    -1.56    21.00
    5.66    -1.73     0.10    72.00
   10.16    -3.10    -0.56    12.00
    8.48    -2.59    -1.72    16.00
    7.04    -2.15     0.64     8.00
    5.88    -1.80    -0.97    15.00
    5.16    -1.57     0.66    14.00
    5.73    -1.75    -0.74    23.00
    5.61    -1.71     0.93    75.00
    9.99    -3.05     2.03    11.00
    8.61    -2.63    -0.47    15.00
    6.88    -2.10     1.66     8.00
    5.97    -1.82    -0.11    18.00
    5.00    -1.53     1.40    15.00
    3.96    -1.22    -0.66    12.00
    3.96    -1.22     0.51    14.00
    4.00    -1.23    -0.07    13.00
    3.86    -1.19     1.08    14.00
    5.56    -1.72    -1.56    21.00
    5.68    -1.76     0.10    75.00
   10.16    -3.14    -0.56    11.00
    8.46    -2.62    -1.72    13.00
    7.02    -2.17     0.64     9.00
    5.89    -1.82    -0.98    15.00
    5.13    -1.59     0.66    14.00
    5.71    -1.76    -0.73    22.00
    5.62    -1.74     0.93    72.00
    9.99    -3.09     2.03    11.00
    8.62    -2.67    -0.47    15.00
    6.86    -2.12     1.66     9.00
    5.97    -1.85    -0.11    15.00
    5.00    -1.55     1.40    16.00
    3.94    -1.23    -0.65    12.00
    3.97    -1.23     0.51    14.00
    4.00    -1.25    -0.07    12.00
    3.86    -1.20     1.08    14.00
    5.55    -1.74    -1.56    23.00
    5.68    -1.78     0.10    71.00
   10.15    -3.18    -0.56    11.00
    8.46    -2.65    -1.72    15.00
    7.01    -2.19     0.64     8.00
    5.89    -1.84    -0.98    16.00
    5.14    -1.61     0.66    14.00
    5.72    -1.79    -0.74    22.00
    5.61    -1.76     0.93    75.00
    9.99    -3.13     2.04    11.00
    8.60    -2.69    -0.47    15.00
    6.86    -2.15     1.66     8.00
    5.94    -1.86    -0.11    15.00
    5.00    -1.57     1.40    14.00
    3.96    -1.25    -0.66    13.00
    3.95    -1.24     0.51    14.00
    4.01    -1.26    -0.07    14.00
    3.85    -1.21     1.08    14.00
    5.56    -1.76    -1.56    25.00
    5.68    -1.80     0.10    72.00
   10.16    -3.22    -0.56    11.00
    8.44    -2.67    -1.72    15.00
    7.02    -2.22     0.64     8.00
    5.87    -1.86    -0.98    15.00
    5.12    -1.62     0.66    14.00
    5.70    -1.81    -0.73    25.00
    5.62    -1.78     0.93    70.00
   10.00    -3.17     2.04    11.00
    8.59    -2.72    -0.47    15.00
    6.86    -2.17     1.66     9.00
    5.95    -1.89    -0.11    15.00
    4.98    -1.58     1.40    14.00
    3.95    -1.26    -0.66    14.00
    3.97    -1.26     0.51    14.00
    4.00    -1.28    -0.07    13.00
    3.86    -1.23     1.09    14.00
    5.53    -1.77    -1.56    25.00
    5.69    -1.82     0.10    70.00
   10.16    -3.26    -0.56    11.00
    8.44    -2.70    -1.72    13.00
    7.00    -2.25     0.64     8.00
    5.87    -1.88    -0.98    14.00
    5.12    -1.64     0.66    14.00
    5.69    -1.82    -0.73    22.00
    5.62    -1.80     0.93    70.00
    9.98    -3.20     2.04    11.00
    8.59    -2.75    -0.47    15.00
    6.84    -2.19     1.66     8.00
    5.95    -1.91    -0.11    16.00
    4.99    -1.60     1.40    14.00
    3.96    -1.28    -0.66    13.00
    3.96    -1.28     0.51    14.00
    4.00    -1.29    -0.07    13.00
    3.85    -1.24     1.08    14.00
    5.54    -1.80    -1.56    23.00
    5.68    -1.84     0.10    67.00
   10.15    -3.30    -0.56    11.00
    8.43    -2.74    -1.72    15.00
    7.00    -2.27     0.64     8.00
    5.85    -1.90    -0.97    14.00
    5.12    -1.66     0.66    14.00
    5.71    -1.85    -0.74    23.00
    5.61    -1.82     0.93    64.00
   10.00    -3.25     2.04    11.00
    8.57    -2.78    -0.47    15.00
    6.85    -2.22     1.66     8.00
    5.94    -1.93    -0.11    16.00
    4.98    -1.62     1.40    14.00
    3.96    -1.29    -0.66    13.00
    3.96    -1.29     0.51    14.00
    4.00    -1.31    -0.07    13.00
    3.86    -1.26     1.09    13.00
    5.54    -1.82    -1.56    23.00
    5.69    -1.87     0.10    59.00
   10.17    -3.34    -0.56    11.00
    8.42    -2.76    -1.72    15.00
    6.98    -2.29     0.64     8.00
    5.85    -1.92    -0.98    14.00
    5.10    -1.67     0.66    14.00
    5.69    -1.87    -0.74    22.00
    5.62    -1.85     0.94    61.00
   10.00    -3.28     2.05    12.00
    8.57    -2.81    -0.47    16.00
    6.83    -2.24     1.66     8.00
    5.93    -1.95    -0.11    15.00
    4.97    -1.63     1.40    14.00
    3.95    -1.30    -0.66    14.00
    3.97    -1.31     0.51    13.00
    4.03    -1.33    -0.07    30.00
    3.85    -1.27     1.09    13.00
    5.54    -1.84    -1.56    25.00
    5.68    -1.89     0.10    61.00
   10.15    -3.37    -2.47     3.00
   10.16    -3.37    -0.56    12.00
    8.42    -2.80    -1.72    15.00
    6.97    -2.32     0.64     8.00
    5.85    -1.94    -0.98    15.00
    5.11    -1.70     0.66    15.00
    5.69    -1.89    -0.74    23.00
    5.61    -1.86     0.94    55.00
   10.37    -3.44    -0.96     3.00
   10.00    -3.32     2.05    11.00
    8.55    -2.84    -0.47    15.00
    6.82    -2.27     1.66     9.00
    5.91    -1.96    -0.11    16.00
    4.97    -1.65     1.40    14.00
    3.96    -1.32    -0.66    14.00
    3.95    -1.32     0.51    13.00
    4.01    -1.34    -0.07    11.00
    3.86    -1.29     1.09    13.00
    5.55    -1.86    -1.57    23.00
    5.68    -1.91     0.10    56.00
   10.05    -3.38    -2.45     3.00
   10.17    -3.42    -0.56    11.00
    8.40    -2.82    -1.72    16.00
    6.97    -2.34     0.64     8.00
    5.85    -1.96    -0.98    15.00
    5.10    -1.71     0.66    14.00
    5.69    -1.91    -0.74    25.00
    5.62    -1.89     0.94    53.00
   10.27    -3.45    -0.95     3.00
   10.01    -3.36     2.05     9.00
    8.54    -2.87    -0.47    15.00
    6.82    -2.29     1.66     8.00
    5.92    -1.99    -0.11    14.00
    4.95    -1.66     1.40    14.00
    3.94    -1.33    -0.66     3.00
    3.97    -1.34     0.51    13.00
    3.98    -1.34    -0.07     1.00
    3.87    -1.31     1.09    13.00
    5.52    -1.88    -1.56    22.00
    5.69    -1.93     0.10    53.00
   10.02    -3.41    -2.44     9.00
   10.17    -3.45    -0.56     9.00
    8.39    -2.85    -1.72    15.00
    6.96    -2.36     0.64     8.00
    5.84    -1.98    -0.98    14.00
    5.08    -1.73     0.66    14.00
    5.69    -1.93    -0.74    21.00
    5.62    -1.91     0.94    52.00
   10.25    -3.48    -0.95     6.00
   10.00    -3.40     2.05     9.00
    8.54    -2.90    -0.47    13.00
    6.80    -2.31     1.66     9.00
    5.91    -2.01    -0.11    15.00
    4.96    -1.69     1.40    14.00
    3.99    -1.36    -0.67     1.00
    3.97    -1.36     0.51    13.00
    3.85    -1.32     1.09    13.00
    5.54    -1.90    -1.57    20.00
    5.67    -1.95     0.10    46.00
   10.01    -3.44    -2.44     3.00
   10.17    -3.49    -0.56     9.00
    8.38    -2.88    -1.72    15.00
    6.96    -2.39     0.64     8.00
    5.82    -2.00    -0.98    14.00
    5.10    -1.75     0.66    14.00
    5.71    -1.96    -0.74    22.00
    5.61    -1.93     0.94    50.00
   10.21    -3.51    -0.94     3.00
   10.03    -3.45     2.06     8.00
    8.52    -2.93    -0.47    13.00
    6.80    -2.34     1.66     8.00
    5.90    -2.03    -0.11    15.00
    4.95    -1.70     1.40    14.00
    3.96    -1.37     0.51    13.00
    3.96    -1.37    -0.07     1.00
    3.86    -1.33     1.09    13.00
    5.54    -1.93    -1.57    21.00
    5.69    -1.98     0.11    48.00
    9.95    -3.46    -2.43     6.00
   10.19    -3.54    -0.57     8.00
    8.36    -2.91    -1.72    12.00
    6.94    -2.41     0.64     8.00
    5.83    -2.03    -0.98    15.00
    5.06    -1.76     0.66    14.00
    5.69    -1.98    -0.74    22.00
    5.62    -1.96     0.94    46.00
   10.15    -3.53    -0.94     8.00
   10.04    -3.49     2.07     6.00
    8.52    -2.96    -0.47    15.00
    6.79    -2.36     1.66     8.00
    5.91    -2.05    -0.11    15.00
    4.95    -1.72     1.40    14.00
    3.98    -1.39    -0.67     1.00
    3.97    -1.39     0.52    13.00
    3.90    -1.36    -0.07     1.00
    3.86    -1.35     1.10    13.00
    5.54    -1.95    -1.57    22.00
    5.68    -2.00     0.11    45.00
    9.98    -3.51    -2.44     9.00
   10.25    -3.60    -0.57    13.00
    8.37    -2.94    -1.72    15.00
    6.94    -2.44     0.64     9.00
    5.83    -2.05    -0.98    15.00
    5.08    -1.79     0.66    15.00
    5.70    -2.01    -0.74    25.00
    5.61    -1.97     0.94    45.00
   10.21    -3.59    -0.95    24.00
   10.08    -3.54     2.08    16.00
    8.51    -2.99    -0.47    13.00
    6.79    -2.39     1.66     8.00
    5.88    -2.07    -0.11    16.00
    4.95    -1.74     1.41    14.00
    3.85    -1.36    -0.65     1.00
    3.96    -1.40     0.52    13.00
    3.93    -1.39    -0.07     1.00
    3.86    -1.37     1.10    13.00
    5.55    -1.97    -1.58    22.00
    5.68    -2.02     0.11    46.00
    9.98    -3.55    -2.45    24.00
   10.26    -3.65    -0.57    17.00
    8.34    -2.96    -1.72    12.00
    6.93    -2.46     0.64     8.00
    5.81    -2.06    -0.98    16.00
    5.07    -1.80     0.66    14.00
    5.70    -2.02    -0.74    22.00
    5.62    -2.00     0.94    41.00
   10.20    -3.63    -0.95    24.00
   10.09    -3.59     2.08    17.00
    8.49    -3.02    -0.47    13.00
    6.78    -2.41     1.66     8.00
    5.90    -2.10    -0.11    18.00
    4.93    -1.75     1.40    15.00
    3.97    -1.42     0.52    13.00
    3.83    -1.37    -0.07     1.00
    3.87    -1.38     1.10    13.00
    5.53    -1.99    -1.58    22.00
    5.69    -2.04     0.11    41.00
    9.98    -3.59    -2.45    24.00
   10.26    -3.69    -0.57    17.00
    8.33    -3.00    -1.72    13.00
    6.91    -2.48     0.64     8.00
    5.82    -2.09    -0.98    16.00
    5.06    -1.82     0.66    14.00
    5.69    -2.05    -0.74    21.00
    5.62    -2.02     0.95    41.00
   10.21    -3.67    -0.95    24.00
   10.09    -3.63     2.08    17.00
    8.49    -3.05    -0.47    13.00
    6.77    -2.43     1.66     8.00
    5.90    -2.12    -0.11    15.00
    4.94    -1.77     1.41    14.00
    3.96    -1.43     0.52    13.00
    3.80    -1.37    -0.07     3.00
    3.86    -1.39     1.10    13.00
    5.55    -2.01    -1.58    18.00
    5.68    -2.06     0.11    41.00
    9.99    -3.63    -2.45    24.00
   10.26    -3.73    -0.57    16.00
    8.33    -3.03    -1.72    13.00
    6.91    -2.51     0.64     9.00
    5.82    -2.11    -0.98    21.00
    5.07    -1.84     0.66    14.00
    5.70    -2.07    -0.74    20.00
    5.62    -2.04     0.95    39.00
   10.21    -3.71    -0.95    21.00
   10.10    -3.67     2.09    17.00
    8.46    -3.07    -0.47    13.00
    6.77    -2.46     1.66     8.00
    5.88    -2.14    -0.11    25.00
    4.92    -1.79     1.40    14.00
    3.78    -1.38    -0.64     6.00
    3.97    -1.45     0.52    13.00
    3.82    -1.40    -0.07     6.00
    3.87    -1.41     1.10    13.00
    5.54    -2.03    -1.58    22.00
    5.69    -2.09     0.11    37.00
    9.98    -3.67    -2.46    24.00
   10.27    -3.77    -0.57    16.00
    8.31    -3.05    -1.72    13.00
    6.90    -2.54     0.64     8.00
    5.79    -2.13    -0.98    18.00
    5.04    -1.85     0.66    14.00
    5.68    -2.09    -0.74    21.00
    5.63    -2.07     0.95    35.00
   10.22    -3.75    -0.95    24.00
   10.10    -3.71     2.09    17.00
    8.47    -3.11    -0.47    15.00
    6.75    -2.48     1.66     8.00
    5.85    -2.15    -0.11    14.00
    4.92    -1.81     1.40    14.00
    3.72    -1.37    -0.63     9.00
    3.98    -1.47     0.52    13.00
    3.78    -1.39    -0.07    31.00
    3.87    -1.43     1.11    13.00
    5.53    -2.05    -1.58    18.00
    5.69    -2.11     0.11    33.00
    9.99    -3.71    -2.46    24.00
   10.25    -3.81    -0.57    17.00
    8.32    -3.09    -1.72    15.00
    6.90    -2.56     0.64     8.00
    5.73    -2.13    -0.97     7.00
    5.05    -1.88     0.66    14.00
    5.70    -2.12    -0.75    16.00
    5.61    -2.08     0.95    33.00
   10.24    -3.80    -0.96    24.00
   10.09    -3.75     2.09    17.00
    8.46    -3.14    -0.47    15.00
    6.76    -2.51     1.66     8.00
    5.80    -2.15    -0.11     5.00
    4.92    -1.83     1.41    14.00
    3.74    -1.40    -0.63    52.00
    3.97    -1.48     0.52    13.00
    3.78    -1.41    -0.07    28.00
    3.86    -1.44     1.11    11.00
    5.55    -2.08    -1.59    13.00
    5.68    -2.13     0.11    33.00
    9.99    -3.75    -2.46    24.00
   10.27    -3.85    -0.57    19.00
    8.30    -3.11    -1.72    15.00
    6.89    -2.59     0.64     8.00
    5.74    -2.15    -0.97     5.00
    5.04    -1.89     0.66    14.00
    5.71    -2.14    -0.75    10.00
    5.62    -2.11     0.95    34.00
   10.22    -3.83    -0.96    24.00
   10.10    -3.79     2.10    17.00
    8.44    -3.17    -0.47    15.00
    6.73    -2.53     1.66     8.00
    5.82    -2.18    -0.11     7.00
    4.89    -1.84     1.40    14.00
    3.73    -1.41    -0.63    13.00
    3.96    -1.49     0.52     3.00
    2.26    -0.85     0.65     1.00
    5.56    -2.11    -1.59    10.00
    5.69    -2.16     0.11    31.00
    9.99    -3.79    -2.47    24.00
   10.27    -3.89    -0.58    19.00
    8.31    -3.15    -1.73    16.00
    6.87    -2.61     0.64     8.00
    5.74    -2.18    -0.97    10.00
    5.03    -1.91     0.66    14.00
    5.74    -2.18    -0.75     6.00
    5.62    -2.13     0.95    28.00
   10.23    -3.88    -0.96    24.00
   10.09    -3.83     2.10    19.00
    8.44    -3.20    -0.47    13.00
    6.72    -2.55     1.66     8.00
    5.78    -2.19    -0.11    10.00
    4.90    -1.86     1.40    14.00
    2.33    -0.89    -0.39     7.00
    2.32    -0.88     0.31     7.00
    2.33    -0.89     0.57     1.00
    2.35    -0.90    -0.04    27.00
    2.24    -0.85     0.64    16.00
    5.59    -2.14    -1.60     1.00
    5.68    -2.18     0.11    26.00
   10.00    -3.83    -2.47    24.00
   10.27    -3.93    -0.58    19.00
    8.28    -3.17    -1.72    15.00
    6.87    -2.63     0.64     8.00
    5.68    -2.17    -0.96     7.00
    5.03    -1.93     0.66    14.00
    5.62    -2.15     0.95    23.00
   10.23    -3.92    -0.96    24.00
   10.11    -3.87     2.10    17.00
    8.42    -3.23    -0.47    15.00
    6.73    -2.58     1.66     8.00
    5.79    -2.22    -0.11     8.00
    4.89    -1.87     1.40    14.00
    2.37    -0.91     0.22     1.00
    2.32    -0.90    -0.39    43.00
    2.31    -0.89     0.30    29.00
    2.31    -0.89     0.57     1.00
    2.34    -0.90    -0.04    41.00
    2.26    -0.87     0.65    43.00
    5.70    -2.20     0.11    24.00
    9.99    -3.87    -2.47    24.00
   10.28    -3.98    -0.58    19.00
    8.27    -3.20    -1.72    13.00
    6.86    -2.66     0.64     8.00
    5.83    -2.26    -0.99    27.00
    5.01    -1.94     0.66    14.00
    8.83    -3.42    -1.16     8.00
    5.62    -2.18     0.96    22.00
    8.92    -3.45    -0.84     4.00
    8.79    -3.40     1.83    11.00
    8.41    -3.26    -0.47    13.00
    6.70    -2.59     1.66     8.00
    5.91    -2.29    -0.11     7.00
    4.87    -1.89     1.40    13.00
    2.37    -0.92     0.22     1.00
    2.29    -0.89    -0.39    44.00
    2.31    -0.90     0.30    52.00
    2.29    -0.89     0.57     1.00
    2.33    -0.91    -0.04    56.00
    2.24    -0.87     0.64    57.00
    8.60    -3.36    -2.47    30.00
    5.70    -2.23     0.11    23.00
    8.69    -3.40    -2.16    15.00
    8.93    -3.49    -0.50    16.00
    8.26    -3.23    -1.72    15.00
    6.85    -2.68     0.64     8.00
    5.78    -2.26    -0.98     7.00
    5.02    -1.96     0.66    14.00
    8.82    -3.45    -1.16     8.00
    5.61    -2.19     0.95    19.00
    8.88    -3.47    -0.83    18.00
    8.74    -3.42     1.82    12.00
    8.40    -3.29    -0.47    15.00
    6.70    -2.62     1.66     8.00
    5.79    -2.26    -0.11     7.00
    4.88    -1.91     1.40    14.00
    8.80    -3.46    -1.84     1.00
    2.33    -0.92     0.22     1.00
    2.31    -0.91    -0.39    54.00
    2.29    -0.90     0.30    64.00
    8.95    -3.52    -0.50     1.00
    2.30    -0.90     0.57     1.00
    2.34    -0.92    -0.04    49.00
    2.24    -0.88     0.64    50.00
    8.53    -3.37    -2.46    11.00
    5.69    -2.25     0.11    19.00
    8.63    -3.41    -2.14    24.00
    8.88    -3.51    -0.50    30.00
    8.24    -3.26    -1.72    15.00
    6.84    -2.70     0.64     8.00
    5.65    -2.23    -0.96    18.00
    5.01    -1.98     0.66    14.00
    8.76    -3.46    -1.16    13.00
    5.62    -2.22     0.96    19.00
    8.81    -3.48    -0.83    47.00
    8.71    -3.44     1.82    41.00
    8.38    -3.31    -0.47    13.00
    6.68    -2.64     1.66     8.00
    5.71    -2.26    -0.11    21.00
    4.86    -1.92     1.40    14.00
    2.35    -0.93     0.22     1.00
    2.32    -0.92    -0.39    43.00
    2.30    -0.91     0.30    38.00
    2.33    -0.92     0.58     1.00
    2.33    -0.93    -0.04    39.00
    2.25    -0.89     0.65    42.00
    8.52    -3.40    -2.46     3.00
    5.70    -2.27     0.11    17.00
    8.61    -3.44    -2.14    47.00
    8.85    -3.53    -0.50    24.00
    8.24    -3.29    -1.72    13.00
    6.82    -2.72     0.64     8.00
    5.63    -2.25    -0.96     7.00
    4.99    -1.99     0.66    14.00
    5.67    -2.26    -0.75    30.00
    5.62    -2.24     0.96    16.00
    8.83    -3.52    -0.83    38.00
    8.70    -3.47     1.82     6.00
    8.39    -3.35    -0.47    15.00
    6.68    -2.66     1.66     8.00
    5.70    -2.27    -0.11     5.00
    4.87    -1.94     1.40    14.00
    2.40    -0.96     0.23     1.00
    2.31    -0.92    -0.39    24.00
    2.30    -0.92     0.30    20.00
    2.37    -0.95     0.59     1.00
    2.34    -0.94    -0.04    19.00
    2.24    -0.90     0.65    20.00
    5.52    -2.23    -1.60    40.00
    5.68    -2.29     0.11    15.00
    8.65    -3.48    -2.15    42.00
   10.27    -4.14    -0.58    16.00
    8.22    -3.31    -1.72    15.00
    6.82    -2.75     0.64     8.00
    5.60    -2.26    -0.96     4.00
    5.00    -2.02     0.66    14.00
    5.66    -2.28    -0.75    36.00
    5.62    -2.27     0.96    15.00
    8.84    -3.56    -0.83    45.00
   10.12    -4.08     2.12    15.00
    8.36    -3.37    -0.47    15.00
    6.68    -2.69     1.66     8.00
    5.68    -2.29    -0.11     4.00
    4.86    -1.96     1.40    14.00
    2.36    -0.96     0.22     1.00
    2.33    -0.94    -0.40    19.00
    2.30    -0.93     0.31    20.00
    2.30    -0.93     0.57     1.00
    2.35    -0.95    -0.04    19.00
    2.25    -0.91     0.65    18.00
    5.50    -2.24    -1.59    37.00
    5.69    -2.32     0.11    15.00
    8.63    -3.51    -2.15    42.00
   10.29    -4.19    -0.58    13.00
    8.21    -3.34    -1.72    15.00
    6.81    -2.77     0.64     8.00
    5.61    -2.28    -0.96     5.00
    4.97    -2.02     0.66    13.00
    5.65    -2.30    -0.75    26.00
    5.63    -2.29     0.96    11.00
    8.85    -3.60    -0.84    45.00
   10.12    -4.12     2.12    13.00
    8.36    -3.40    -0.47    15.00
    6.66    -2.71     1.66     8.00
    5.69    -2.32    -0.11     6.00
    4.85    -1.97     1.40    14.00
    2.37    -0.97     0.22     1.00
    2.31    -0.95    -0.40    18.00
    2.31    -0.95     0.31    18.00
    2.31    -0.94     0.58     1.00
    2.34    -0.96    -0.04    16.00
    2.25    -0.92     0.65    19.00
    5.50    -2.26    -1.59    23.00
    5.69    -2.34     0.11    11.00
    8.64    -3.55    -2.16    40.00
   10.28    -4.23    -0.58    15.00
    8.21    -3.38    -1.73    15.00
    6.80    -2.80     0.64     8.00
    5.61    -2.31    -0.96     7.00
    4.98    -2.05     0.66    14.00
    5.66    -2.33    -0.75    31.00
   10.11    -4.16     1.73    10.00
    8.85    -3.64    -0.84    40.00
   10.11    -4.16     2.12    13.00
    8.36    -3.44    -0.47    15.00
    6.66    -2.74     1.66     8.00
    5.68    -2.33    -0.11     7.00
    4.85    -2.00     1.41    14.00
    2.36    -0.97     0.22     1.00
    2.31    -0.96    -0.40    16.00
    2.30    -0.95     0.30    19.00
    2.28    -0.94     0.57     1.00
    2.34    -0.97    -0.04    15.00
    2.24    -0.93     0.65    17.00
    5.51    -2.29    -1.60    38.00
   10.24    -4.25     0.19    10.00
    8.64    -3.59    -2.16    40.00
   10.29    -4.27    -0.58    15.00
    8.19    -3.40    -1.72    15.00
    6.79    -2.82     0.64     8.00
    5.59    -2.32    -0.96     7.00
    4.98    -2.07     0.66    14.00
    5.65    -2.35    -0.75    36.00
   10.13    -4.21     1.74    11.00
    8.84    -3.67    -0.84    38.00
   10.12    -4.20     2.13    16.00
    8.34    -3.46    -0.47    15.00
    6.63    -2.75     1.66     8.00
    5.67    -2.35    -0.11     5.00
    4.83    -2.01     1.40    14.00
    2.34    -0.98     0.22     1.00
    2.31    -0.96    -0.40    15.00
    2.31    -0.96     0.31    17.00
    2.31    -0.96     0.58     2.00
    2.33    -0.97    -0.04    15.00
    2.26    -0.94     0.66    18.00
    5.50    -2.31    -1.60     8.00
   10.25    -4.30     0.19    11.00
    8.64    -3.62    -2.16    40.00
   10.28    -4.31    -0.58    16.00
    8.18    -3.43    -1.72    13.00
    6.78    -2.84     0.64     8.00
    5.59    -2.34    -0.96     6.00
    4.96    -2.08     0.66    14.00
   10.13    -4.25     1.74    11.00
    8.85    -3.71    -0.84    40.00
   10.11    -4.24     2.13    16.00
    8.33    -3.49    -0.47    15.00
    6.63    -2.78     1.66     8.00
    5.65    -2.37    -0.11     7.00
    4.83    -2.03     1.40    14.00
    2.36    -0.99     0.22     2.00
    2.31    -0.97    -0.40    15.00
    2.31    -0.97     0.31    17.00
    2.28    -0.96     0.57     2.00
    2.34    -0.99    -0.04    14.00
    2.24    -0.94     0.65    16.00
   10.24    -4.34     0.19    11.00
    8.66    -3.67    -2.17    42.00
   10.28    -4.35    -0.58    15.00
    8.17    -3.46    -1.72    13.00
    6.77    -2.87     0.64     8.00
    5.57    -2.36    -0.96     7.00
    4.96    -2.10     0.66    14.00
   10.12    -4.29     1.74    11.00
    8.86    -3.75    -0.84    23.00
   10.11    -4.28     2.14    15.00
    8.30    -3.52    -0.47    13.00
    6.63    -2.81     1.66     8.00
    5.65    -2.39    -0.11     7.00
    4.82    -2.04     1.40    13.00
    2.33    -0.99     0.22     3.00
    2.31    -0.98    -0.40    14.00
    2.31    -0.98     0.31    17.00
    2.29    -0.97     0.57     3.00
    2.34    -0.99    -0.04    14.00
    2.25    -0.95     0.65    15.00
   10.25    -4.38     0.19    12.00
   10.29    -4.40    -0.59    16.00
    8.16    -3.49    -1.72    13.00
    6.76    -2.89     0.64     8.00
    5.58    -2.39    -0.96     7.00
    4.94    -2.11     0.66    14.00
   10.13    -4.33     1.75    12.00
    8.85    -3.78    -0.84    19.00
   10.13    -4.33     2.14    16.00
    8.30    -3.55    -0.47    12.00
    6.61    -2.82     1.66     9.00
    5.67    -2.42    -0.11     7.00
    4.81    -2.06     1.40    13.00
    2.34    -1.00     0.22     3.00
    2.30    -0.99    -0.40    14.00
    2.31    -0.99     0.31    17.00
    2.30    -0.99     0.58     3.00
    2.34    -1.00    -0.04    14.00
    2.25    -0.97     0.66    16.00
    6.01    -2.59    -1.75     1.00
   10.25    -4.42     0.19    12.00
    8.66    -3.74    -2.18    42.00
   10.27    -4.43    -0.59    16.00
    8.15    -3.52    -1.73    13.00
    6.75    -2.91     0.64     8.00
    5.56    -2.40    -0.96    10.00
    4.94    -2.13     0.66    14.00
    6.20    -2.68    -0.83    17.00
   10.12    -4.37     1.75    15.00
    8.86    -3.82    -0.84    45.00
   10.12    -4.37     2.14    15.00
    8.28    -3.57    -0.47    13.00
    6.61    -2.85     1.66     8.00
    5.59    -2.41    -0.11    14.00
    4.81    -2.08     1.40    14.00
    2.34    -1.01     0.22     3.00
    2.31    -1.00    -0.40    13.00
    2.29    -0.99     0.31    15.00
    2.27    -0.98     0.57     4.00
    2.35    -1.02    -0.04    14.00
    2.24    -0.97     0.66    16.00
    6.02    -2.62    -1.76    15.00
   10.24    -4.46     0.20    16.00
    8.65    -3.77    -2.18    45.00
   10.29    -4.48    -0.59    15.00
    8.12    -3.54    -1.72    12.00
    6.75    -2.94     0.64     8.00
    5.51    -2.40    -0.95    15.00
    4.94    -2.15     0.66    14.00
    6.18    -2.69    -0.83     6.00
   10.13    -4.41     1.75    17.00
    8.85    -3.86    -0.84    42.00
   10.14    -4.42     2.15    15.00
    8.27    -3.60    -0.47    12.00
    6.60    -2.87     1.66     8.00
    5.59    -2.44    -0.11    17.00
    4.80    -2.09     1.40    14.00
    2.34    -1.02     0.22     4.00
    2.31    -1.01    -0.40    12.00
    2.31    -1.01     0.31    15.00
    2.30    -1.01     0.58     5.00
    2.34    -1.02    -0.04    13.00
    2.26    -0.99     0.66    15.00
    6.07    -2.67    -1.78     1.00
   10.25    -4.51     0.20    17.00
    8.66    -3.81    -2.18    45.00
   10.29    -4.53    -0.59    16.00
    8.12    -3.57    -1.73    13.00
    6.72    -2.96     0.64     8.00
    5.52    -2.43    -0.95    20.00
    4.92    -2.16     0.66    14.00
    2.37    -1.04    -0.32     1.00
   10.13    -4.46     1.75    17.00
    8.86    -3.90    -0.85    45.00
   10.13    -4.45     2.15    15.00
    8.27    -3.64    -0.47    13.00
    6.58    -2.89     1.66     8.00
    5.58    -2.46    -0.11    23.00
    4.80    -2.11     1.41    14.00
    2.34    -1.03     0.22     5.00
    2.31    -1.02    -0.40    14.00
    2.31    -1.02     0.31    15.00
    2.29    -1.01     0.58     5.00
    2.34    -1.04    -0.04    12.00
    2.24    -0.99     0.66    15.00
    2.31    -1.03    -0.68     4.00
   10.24    -4.55     0.20    17.00
    8.67    -3.85    -2.19    45.00
   10.29    -4.57    -0.59    15.00
    8.11    -3.60    -1.72    12.00
    6.72    -2.99     0.64     8.00
    5.50    -2.44    -0.95    22.00
    4.92    -2.18     0.66    13.00
    2.36    -1.05    -0.32    19.00
   10.13    -4.50     1.76    17.00
    8.86    -3.93    -0.85    42.00
   10.14    -4.50     2.16    13.00
    8.24    -3.66    -0.47    13.00
    6.58    -2.92     1.66     8.00
    5.59    -2.48    -0.11    27.00
    4.78    -2.12     1.40    13.00
    2.33    -1.04     0.22     5.00
    2.32    -1.04    -0.40    12.00
    2.30    -1.03     0.31    15.00
    2.29    -1.02     0.58     5.00
    2.35    -1.05    -0.04    12.00
    2.25    -1.00     0.66    15.00
    2.28    -1.02    -0.67    42.00
   10.25    -4.59     0.20    17.00
    8.66    -3.88    -2.19    45.00
   10.30    -4.62    -0.59    15.00
    8.09    -3.63    -1.72    13.00
    6.71    -3.01     0.64     8.00
    5.51    -2.47    -0.96    27.00
    4.90    -2.19     0.66    14.00
    2.35    -1.05    -0.32    45.00
   10.14    -4.54     1.76    18.00
    8.86    -3.97    -0.85    42.00
   10.13    -4.54     2.16    13.00
    8.24    -3.69    -0.47    13.00
    6.56    -2.94     1.66     8.00
    5.59    -2.50    -0.11    26.00
    4.76    -2.13     1.40    13.00
    2.34    -1.06     0.22     5.00
    2.31    -1.04    -0.40    12.00
    2.31    -1.04     0.31    15.00
    2.30    -1.03     0.58     5.00
    2.34    -1.05    -0.04    13.00
    2.25    -1.01     0.66    16.00
    2.27    -1.03    -0.67    43.00
   10.25    -4.64     0.20    20.00
    8.66    -3.92    -2.20    42.00
   10.30    -4.66    -0.59    13.00
    8.09    -3.66    -1.73    13.00
    6.70    -3.03     0.64     8.00
    5.51    -2.49    -0.96    28.00
    4.91    -2.22     0.66    14.00
    2.36    -1.07    -0.32    39.00
   10.12    -4.58     1.76    20.00
    8.87    -4.01    -0.85    47.00
   10.14    -4.59     2.16    13.00
    8.23    -3.72    -0.47    15.00
    6.55    -2.96     1.66     8.00
    5.58    -2.52    -0.11    28.00
    4.77    -2.16     1.40    14.00
    2.34    -1.07     0.23     5.00
    2.31    -1.05    -0.40    13.00
    2.30    -1.04     0.31    14.00
    2.28    -1.04     0.58     5.00
    2.35    -1.07    -0.05    13.00
    2.25    -1.02     0.66    13.00
    2.29    -1.05    -0.68    32.00
   10.25    -4.68     0.20    18.00
    8.66    -3.95    -2.20    42.00
   10.31    -4.71    -0.59    15.00
    8.08    -3.69    -1.73    18.00
    6.70    -3.06     0.64     7.00
    5.51    -2.52    -0.96    28.00
    4.88    -2.23     0.66    13.00
    2.34    -1.07    -0.32    23.00
   10.15    -4.63     1.77    21.00
    8.86    -4.04    -0.85    42.00
   10.14    -4.63     2.17    13.00
    8.21    -3.75    -0.47    26.00
    6.55    -2.99     1.66     8.00
    5.60    -2.56    -0.11    29.00
    4.75    -2.17     1.40    13.00
    2.34    -1.07     0.22     6.00
    2.32    -1.06    -0.40    11.00
    2.31    -1.06     0.31    12.00
    2.29    -1.05     0.58     6.00
    2.33    -1.07    -0.04    11.00
    2.25    -1.03     0.66    13.00
    2.27    -1.04    -0.67    37.00
   10.26    -4.73     0.20    20.00
    8.66    -3.99    -2.20    40.00
   10.31    -4.75    -0.59    13.00
    8.06    -3.71    -1.72    32.00
    6.67    -3.07     0.64     8.00
    5.52    -2.54    -0.96    28.00
    4.88    -2.25     0.66    13.00
    2.35    -1.08    -0.32    40.00
   10.14    -4.67     1.77    20.00
    8.87    -4.09    -0.85    40.00
   10.13    -4.67     2.17    15.00
    8.18    -3.77    -0.47    32.00
    6.53    -3.01     1.66     8.00
    5.59    -2.58    -0.11    28.00
    4.75    -2.19     1.40    14.00
    2.34    -1.08     0.23     6.00
    2.31    -1.07    -0.40    11.00
    2.31    -1.07     0.31    13.00
    2.28    -1.06     0.58     6.00
    2.35    -1.09    -0.05    11.00
    2.24    -1.04     0.66    13.00
    2.28    -1.06    -0.67    34.00
   10.24    -4.76     0.20    21.00
    8.67    -4.03    -2.21    40.00
   10.30    -4.79    -0.60    13.00
    7.99    -3.72    -1.71    30.00
    6.67    -3.10     0.64     8.00
    5.52    -2.57    -0.96    29.00
    4.87    -2.27     0.66    13.00
    2.35    -1.09    -0.32    37.00
   10.13    -4.71     1.77    21.00
    8.87    -4.12    -0.86    38.00
   10.14    -4.71     2.17    12.00
    8.10    -3.77    -0.47    30.00
    6.52    -3.03     1.66     8.00
    5.59    -2.60    -0.11    28.00
    4.74    -2.21     1.40    13.00
    2.32    -1.08     0.22     6.00
    2.32    -1.08    -0.41    12.00
    2.31    -1.08     0.31    12.00
    2.28    -1.07     0.58     7.00
    2.35    -1.10    -0.05    12.00
    2.25    -1.05     0.67    12.00
    2.28    -1.07    -0.67    37.00
   10.26    -4.81     0.20    21.00
    8.66    -4.06    -2.21    40.00
   10.32    -4.84    -0.60    15.00
    7.93    -3.72    -1.70    20.00
    6.66    -3.12     0.64     8.00
    5.52    -2.59    -0.97    28.00
    4.86    -2.28     0.66    14.00
    2.33    -1.09    -0.32    29.00
   10.14    -4.76     1.77    21.00
    8.87    -4.16    -0.86    38.00
   10.14    -4.76     2.18    12.00
    8.04    -3.77    -0.47    10.00
    6.50    -3.05     1.66     8.00
    5.61    -2.63    -0.11    28.00
    4.73    -2.22     1.40    13.00
    2.34    -1.10     0.23     7.00
    2.30    -1.09    -0.40    12.00
    2.32    -1.09     0.31    11.00
    2.29    -1.08     0.58     7.00
    2.34    -1.10    -0.05    12.00
    2.25    -1.06     0.67    12.00
    2.28    -1.08    -0.68    33.00
   10.25    -4.85     0.20    21.00
    8.67    -4.10    -2.21    38.00
   10.31    -4.88    -0.60    16.00
    7.91    -3.75    -1.70     6.00
    6.64    -3.14     0.64     8.00
    5.52    -2.61    -0.97    28.00
    4.86    -2.30     0.66    13.00
    2.36    -1.12    -0.32    43.00
   10.13    -4.80     1.78    21.00
    8.88    -4.20    -0.86    45.00
   10.14    -4.80     2.18    12.00
    8.05    -3.81    -0.47     5.00
    6.51    -3.08     1.66     8.00
    5.58    -2.64    -0.11    28.00
    4.74    -2.24     1.40    13.00
    2.33    -1.11     0.23     7.00
    2.31    -1.10    -0.41    11.00
    2.31    -1.10     0.31    13.00
    2.27    -1.08     0.58     7.00
    2.35    -1.12    -0.05    12.00
    2.25    -1.07     0.67    12.00
    2.28    -1.09    -0.68    40.00
   10.25    -4.90     0.20    21.00
    8.67    -4.14    -2.22    38.00
   10.33    -4.93    -0.60    13.00
    7.90    -3.77    -1.70     5.00
    6.65    -3.17     0.64     8.00
    5.51    -2.63    -0.97    26.00
    4.85    -2.32     0.66    13.00
    2.34    -1.12    -0.32    21.00
   10.15    -4.85     1.78    21.00
    8.87    -4.23    -0.86    40.00
   10.16    -4.85     2.19    15.00
    8.04    -3.84    -0.47     5.00
    6.49    -3.10     1.66     8.00
    5.58    -2.66    -0.11    24.00
    4.71    -2.25     1.40    13.00
    2.33    -1.12     0.23     8.00
    2.31    -1.11    -0.41    12.00
    2.31    -1.11     0.31    12.00
    2.29    -1.10     0.59     8.00
    2.34    -1.12    -0.05    11.00
    2.26    -1.08     0.67    11.00
    2.28    -1.10    -0.68    15.00
   10.27    -4.95     0.20    21.00
    8.67    -4.18    -2.22    45.00
   10.32    -4.97    -0.60    15.00
    7.90    -3.81    -1.70     5.00
    6.62    -3.19     0.64     8.00
    5.49    -2.65    -0.97    21.00
    4.84    -2.33     0.66    14.00
    2.34    -1.13    -0.32    19.00
   10.15    -4.89     1.78    18.00
    8.88    -4.28    -0.86    45.00
   10.15    -4.89     2.19    15.00
    8.04    -3.88    -0.47     5.00
    6.48    -3.12     1.66     8.00
    5.55    -2.67    -0.11    20.00
    4.72    -2.28     1.41    14.00
    2.34    -1.13     0.23     8.00
    2.31    -1.12    -0.41    12.00
    2.31    -1.12     0.32    11.00
    2.29    -1.11     0.59     7.00
    2.35    -1.14    -0.05    13.00
    2.25    -1.09     0.67    11.00
    2.28    -1.11    -0.68    19.00
    8.88    -4.32     0.17    10.00
    8.69    -4.22    -2.23    42.00
   10.32    -5.02    -0.60    12.00
    7.88    -3.83    -1.70     5.00
    6.62    -3.22     0.64     8.00
    5.47    -2.66    -0.96    19.00
    4.85    -2.36     0.66    14.00
    2.36    -1.15    -0.32    41.00
    8.77    -4.26     1.54    23.00
    8.87    -4.32    -0.86    42.00
   10.15    -4.94     2.19    12.00
    8.01    -3.89    -0.47     5.00
    6.47    -3.15     1.66     8.00
    5.53    -2.69    -0.11    20.00
    4.71    -2.29     1.40    13.00
    2.33    -1.14     0.23     7.00
    2.32    -1.13    -0.41    12.00
    2.31    -1.13     0.32    11.00
    2.29    -1.12     0.59     8.00
    2.34    -1.15    -0.05    13.00
    2.25    -1.10     0.67    11.00
    2.29    -1.12    -0.68    42.00
    8.88    -4.35     0.17    42.00
    8.66    -4.25    -2.23    45.00
   10.32    -5.06    -0.60    12.00
    7.86    -3.86    -1.70     5.00
    6.61    -3.24     0.64     8.00
    5.47    -2.68    -0.96    21.00
    4.82    -2.36     0.66    14.00
    2.34    -1.15    -0.32    41.00
    8.78    -4.31     1.55    43.00
    8.87    -4.35    -0.86    42.00
    8.83    -4.33     1.91     6.00
    8.00    -3.92    -0.47     5.00
    6.45    -3.17     1.66     8.00
    5.55    -2.72    -0.11    25.00
    4.70    -2.31     1.40    14.00
    2.34    -1.15     0.23     8.00
    2.31    -1.14    -0.41    11.00
    2.32    -1.14     0.32    12.00
